X Y Z Intensity
96.8922176787164 91.43942821864039 226.8114 23.0
96.9198554008035 91.51239474862814 226.8226 21.0
96.98400203173514 91.64521247055382 226.8476 21.0
96.81984979030676 91.29417217429727 227.6685 23.0
97.04881127201952 91.78249403648078 226.8726 21.0
96.88756381045096 91.43930985126644 227.698 23.0
96.98521422361955 91.6585842706263 227.7448 23.0
97.07955156895332 91.85553947649896 227.7885 23.0
97.17855545005295 92.08263055700809 227.8352 23.0
97.20012347784359 92.27217619866133 228.3096 21.0
97.39003172854427 92.52603781223297 227.9274 23.0
97.72433073003776 93.20603596325964 228.0693 23.0
98.11706413782667 94.02982406038791 228.234 23.0
98.24140695761889 94.32871148455888 228.2843 23.0
98.29018485499546 94.39443347789347 228.3021 23.0
98.32859679078683 94.47100929450244 228.3174 23.0
98.453419983387 94.75100923329592 228.3684 23.0
98.49844535381999 94.84220597706735 228.3861 23.0
98.82449459109921 95.5108768986538 228.5101 24.0
99.01106816134416 95.8958399631083 228.5808 24.0
99.06023872527294 96.00715359952301 228.5998 24.0
99.20931729010772 96.31000543292612 228.6554 24.0
139.9579462466063 135.26050411351025 234.4026 43.0
144.97659603704233 107.09864928293973 224.7897 20.0
134.04149628453888 95.01702048070729 224.5902 28.0
140.62004036060534 99.1688880128786 222.7787 20.0
134.10142531013116 94.88847059383988 223.5586 21.0
134.16011068504304 94.8088059714064 223.5206 21.0
134.3047150291968 94.09763089381158 224.2678 27.0
134.32243257842492 94.01136530190706 224.239 27.0
134.48134241788648 93.98872606363147 224.1892 28.0
137.86786742473487 95.81143129989505 222.6924 21.0
136.2377415067749 93.74546691589057 224.6403 30.0
149.77043076232076 100.0376126114279 224.4549 39.0
139.78056074131746 94.36701473873109 222.7966 33.0
139.1301292149583 93.91021489631385 222.8424 20.0
138.96955664712004 93.38805526308715 222.7232 20.0
137.09735613618977 91.62388621456921 222.6746 23.0
132.67366494471207 88.4373633870855 224.7259 20.0
141.44492108433042 91.63999421708286 224.7381 21.0
130.02275591529906 87.44495082180947 222.5748 21.0
129.77400349930394 87.09398087952286 222.5361 21.0
136.17939992109314 88.22860167641193 224.6951 24.0
133.30615121196024 87.18939658906311 224.0901 20.0
133.60710488306358 87.13590673916042 223.9888 21.0
133.6985495107947 87.08042221423239 223.9426 21.0
133.71991917374544 87.00314351264387 223.9066 21.0
132.3048298251815 85.94211219158024 224.7364 29.0
139.70543668419123 88.13709196355194 224.8481 23.0
136.44666823511943 88.06530370842665 222.5901 28.0
136.10752985149156 87.7587274312973 222.5683 27.0
136.0323271022644 87.633410227485 222.5421 27.0
134.07834408350755 86.36855991370976 222.6273 34.0
133.8472805620404 86.20703693199903 222.6322 25.0
133.16160937945824 84.87773101404309 224.9576 22.0
138.03803844749928 86.80393252987415 222.6295 21.0
129.89557174337097 83.29156091250479 225.0204 25.0
137.39584953687154 86.20615064539015 222.5585 20.0
152.10971308406442 88.415994935669 224.8778 29.0
130.33804197097197 83.04489164985716 224.8094 25.0
129.86178894573823 83.15506826899946 224.1807 32.0
152.27633342333138 88.21233740448952 224.7547 30.0
129.80877206358127 82.98139864671975 224.1186 31.0
131.11008299328387 82.96225126087666 224.5885 26.0
161.0828087120317 88.99339359998703 225.0958 31.0
127.21223490010016 81.01092086639255 224.617 20.0
127.00359887606464 80.76102887652814 224.5503 20.0
127.62332094402518 81.14367075264454 223.8529 20.0
126.9900425208034 80.5616811728105 224.4592 20.0
127.32058404909912 80.50449670199305 224.352 20.0
159.27290594868828 85.23855029512197 225.1274 24.0
127.36994597013108 80.45572377182543 224.317 20.0
135.11181099782698 82.50818121712655 222.4887 76.0
128.08390439627692 80.7951813172549 223.5603 20.0
134.58500665519387 82.225736213848 222.491 53.0
136.56771367881447 81.47683032788336 224.4955 22.0
112.9290528508136 77.76593763381243 224.847 30.0
136.62947351997718 81.39835568889976 224.4448 22.0
126.38928392645903 80.80654749367386 222.6042 21.0
112.818731934065 77.67863862216473 224.8481 23.0
112.76393103669398 77.63611000869423 224.849 20.0
126.00154584564734 80.51874695532024 222.5928 20.0
112.63973326038104 77.5451227761805 224.8533 20.0
112.60185528034344 77.50858336593956 224.8502 20.0
149.5977188538527 82.11628836393356 224.9047 24.0
131.75038379221223 80.88845450431108 222.6103 33.0
150.75925462786108 81.91682092286646 224.6405 24.0
131.25904852955136 80.58467717003077 222.5892 40.0
131.5410839089891 79.59683780372143 224.5183 24.0
131.1421427903697 80.48164582904428 222.5698 39.0
131.41021652054042 79.49345128145069 224.4912 24.0
130.92537653376348 80.36829184461385 222.5727 27.0
131.29225247353315 79.40151049476117 224.4677 23.0
138.31436675949953 79.75581078417599 224.2848 21.0
133.14152113732416 79.9621829977259 222.6407 29.0
165.14620983577333 80.28951806668192 225.1502 59.0
132.18054036994 79.3562916778028 222.5623 27.0
112.36851009551901 76.70441308431327 224.8626 48.0
137.5821799946716 77.99729807954282 224.4556 26.0
130.40797281847335 78.58745038788766 222.6022 24.0
112.17184107471257 76.56377729494125 224.8602 43.0
156.16683869855478 78.25000585708767 224.8678 36.0
129.8442288406659 78.38411192875355 222.6306 23.0
133.47267686249688 77.3791235089302 224.7088 34.0
112.099482897087 76.50968461763114 224.8528 31.0
125.34670785209164 77.15350458491594 224.4451 24.0
129.76646026875824 78.23760633450001 222.5712 23.0
141.48279022984207 77.12486577499658 224.5047 28.0
133.5304524526 76.90810051374137 224.4442 25.0
130.2619815536309 76.45473949797451 224.6688 22.0
134.69344041123986 76.19392775651067 224.7933 36.0
124.80291671014857 77.26418702397496 222.6303 25.0
124.57441819668747 77.12385287880898 222.6169 25.0
134.79066698625684 75.8806648477912 224.601 37.0
154.42340455763042 75.32955476734787 224.829 28.0
154.45920431567356 75.20372636429965 224.7565 28.0
112.07508526335005 75.94318450242281 224.8663 22.0
124.91916722955648 75.59285223297775 224.9593 21.0
139.3562485948205 75.25972698163241 224.7414 39.0
111.98192591918632 75.88300397992134 224.8636 40.0
125.037536642747 75.4858003621921 224.8822 29.0
145.33036548097152 74.64572262298316 225.0347 22.0
111.88419747492298 75.81937199272215 224.8606 59.0
125.75057263253257 75.67848343960941 224.2148 22.0
133.78219294641167 74.914470535703 225.0573 36.0
123.76544407301117 76.61410481855273 222.5576 25.0
131.3659235755913 75.16317869443446 224.6034 24.0
131.93969333230052 76.1928009223193 222.5811 25.0
131.40706435975153 75.1019674288109 224.5569 24.0
150.76573804649524 74.18811423517764 224.4168 31.0
111.70607176388148 75.71256032586098 224.8546 22.0
136.4558675698936 74.61561267171055 224.6359 33.0
131.41342208301648 75.95039270538837 222.5481 23.0
131.141710315831 75.86121112760156 222.5508 22.0
161.3375970630441 72.97069341875613 224.6667 25.0
136.43220309808385 74.35597340017557 224.4901 33.0
130.551839197753 75.55603890866041 222.4926 20.0
130.48608202836476 75.48654946591705 222.4652 20.0
133.1250084041385 73.83825615700334 224.4875 34.0
133.09041844704188 73.76400083955377 224.4475 25.0
132.3435407500947 74.8100547529757 222.5547 23.0
133.4349660766311 73.67493230104446 224.3641 35.0
111.72947854083031 75.21953978482634 224.8632 31.0
137.34235795028508 72.87159818038344 224.5222 35.0
111.62764576415066 75.16469738259912 224.8617 67.0
111.57782219373621 75.14008335024118 224.8625 61.0
137.2105393584352 72.62254837714136 224.385 23.0
111.96641472890042 74.99765834957361 224.9708 23.0
111.47213944082614 75.08403127361089 224.8612 67.0
137.24559468217194 72.4344430770725 224.2722 23.0
111.93904404726345 74.94470999855548 224.9462 23.0
111.93154192483053 74.93451344408095 224.936 23.0
131.58503378077876 72.56059254333377 224.7016 27.0
111.8979378072545 74.88251828309149 224.913 23.0
111.74125061556697 74.72622329369187 224.8608 22.0
144.82290261331946 69.88120143022388 224.6616 29.0
131.39252027240582 71.982033229433 224.3703 21.0
130.97574494045693 73.0186970224604 222.5386 30.0
129.29405392787885 73.04039715789258 222.7967 21.0
135.65457563265227 71.02762883529067 224.4829 30.0
111.40157988201827 74.59306755755097 224.8673 21.0
111.33388816704974 74.56911077257246 224.8711 21.0
133.05115774762817 70.8224292062223 224.4455 24.0
128.8932113479823 72.53547228500247 222.5351 30.0
144.14432652073447 68.27302610967308 224.8833 46.0
128.74010115675628 72.48266038391739 222.5242 25.0
129.48290304956026 70.89508122485131 224.6144 22.0
142.52296248509083 68.08947243914008 224.7443 23.0
142.3998639526544 68.01630052831024 224.6903 23.0
123.22368258307688 72.09885691292584 224.3241 27.0
134.2782406482147 69.6329470993951 224.5907 22.0
130.38672763714567 70.42223445605487 224.2881 24.0
142.61157019238453 67.56587001215667 224.4246 23.0
131.00715876964387 69.67869419511408 224.6425 106.0
147.52653850300703 65.68976938445121 224.6867 25.0
139.4544414782431 67.52557200659066 224.3388 43.0
111.02887580543756 73.98880236502737 224.8666 32.0
139.7963707933668 67.35639134701341 224.243 22.0
110.98012308869511 73.98311528284103 224.868 34.0
110.92630822956562 73.96284672152251 224.8681 35.0
110.87953071354423 73.94053367059678 224.8652 37.0
153.54606902995147 62.95571283157915 224.7818 24.0
153.88743709714618 62.74760746117681 224.6833 24.0
122.3484510286944 72.17998511437327 222.6221 21.0
124.50760540785268 70.74961546808481 224.0167 36.0
131.95337867399212 68.3631096156314 224.6852 27.0
124.52090762963053 70.68436074350029 223.9745 45.0
131.8752110733185 68.2933044442907 224.6411 27.0
150.76426681666635 62.928293905220926 224.5597 22.0
137.49433797691017 66.4095394294709 224.6373 24.0
121.94022820785176 72.02618524618447 222.5893 21.0
132.90877976850607 67.8459936203435 224.3893 21.0
123.98583992000204 69.81136849429458 224.7421 115.0
124.27306509017944 69.6263426989317 224.6253 21.0
153.08960406878032 60.488247791305184 224.7238 22.0
110.733943764586 73.46989649627358 224.8596 40.0
110.67452980822418 73.45615600422025 224.8635 40.0
149.0301443306962 61.07535963319242 224.6614 22.0
126.2381979188649 69.78194895666093 222.5621 21.0
156.35698728985153 57.87316849734634 225.0614 31.0
121.65732102445327 71.06510913930833 222.5755 27.0
156.38616141024977 57.70270160678774 224.9646 31.0
121.47003829828463 71.04366882424802 222.5865 28.0
135.30042835476343 64.96515258122236 224.5944 39.0
156.07093490217812 57.49345476180315 224.8013 31.0
156.81935452995822 56.966628964059055 224.5876 31.0
127.38244853168726 68.70598015096039 222.5155 40.0
136.70575417601503 64.09149480052292 224.1716 22.0
141.36145035130903 61.85081047099084 224.3306 22.0
110.49292393913493 72.9979436211288 224.8633 33.0
128.60248691530433 67.64083349704742 222.5584 22.0
125.73008033679798 68.64282267913222 222.5558 21.0
110.39857759850565 72.9844263298437 224.8637 35.0
128.37674833857454 67.57505653239787 222.5138 22.0
110.34462142677512 72.96971291862428 224.8633 33.0
127.96929139608983 67.60471413191408 222.5437 21.0
121.17798965983093 70.13683584146202 222.6027 26.0
127.93585694534704 67.54605271108449 222.5061 21.0
125.06784996646456 68.55815984681249 222.5342 23.0
133.75988977076486 63.64856301341206 224.6148 43.0
127.25049516826402 67.5163885941729 222.5043 20.0
128.00648957653902 65.80685261916369 224.5344 21.0
133.6251503158128 63.42278570123017 224.4646 28.0
136.35440077853855 61.427702544257045 224.5649 23.0
129.7554082457209 64.21040398906916 224.5258 34.0
110.22232905984856 72.55970265436918 224.8657 32.0
120.82523945276625 69.29738711286336 222.6473 22.0
135.8728833498899 61.31761879939586 224.4359 22.0
110.67749212798662 72.30223737563938 224.9038 20.0
130.3069041382987 63.76639361213893 224.3143 28.0
131.67869730480015 63.081990527920425 224.0437 23.0
141.9470676977653 57.930121982470155 224.4145 28.0
131.2720164512284 62.562464288435876 224.5754 26.0
126.24853480188176 66.26353044621646 222.4325 101.0
120.89777936332393 67.45261952467263 224.3789 21.0
110.12747954810038 72.1692901449278 224.8703 46.0
127.49163568101358 65.11558916606009 222.4763 23.0
124.21585062891245 65.25460712239146 224.5619 20.0
110.0239384691231 72.1510919900611 224.8703 46.0
120.40747916942928 68.38957983907312 222.6313 29.0
109.97527051833458 72.14207183290273 224.8691 39.0
120.39711624977645 68.33928758557886 222.5969 29.0
126.94807592523284 65.09509112872183 222.4445 22.0
140.74931641784497 56.227581166662276 224.4079 20.0
123.06291408417746 65.48209208343178 223.9015 20.0
129.70452947216108 61.450863579288125 224.5446 33.0
125.38288074370939 65.20536051969975 222.4547 20.0
129.6863693339983 61.37146751023829 224.4943 22.0
129.5297165804077 61.36637063603848 224.4665 33.0
129.70788063493092 61.01403197739273 224.2864 35.0
129.65203713998199 60.95146523695439 224.2402 35.0
120.26585249369964 67.42765069939196 222.5603 21.0
164.87296469788998 39.14232970867306 224.871 37.0
110.14730265014805 71.42047651018947 224.8792 20.0
147.38851285050623 49.15011997707188 224.3924 30.0
126.68657408235595 62.834926253184676 222.5263 21.0
124.55859052913729 62.76522885635495 224.4953 23.0
109.73788956576027 71.37448670063168 224.8715 28.0
110.057936141151 71.08912609145045 224.933 20.0
125.70694585912861 62.778876854106784 222.3941 27.0
125.60690292995423 62.74520296510309 222.3635 27.0
130.2107826527208 59.15464229043573 223.2427 30.0
125.41779857920483 62.76485086698085 222.359 26.0
125.18474918603897 62.803392335772514 222.3622 26.0
129.7474999735132 59.5786618180573 222.5253 26.0
129.60767281008884 59.55286976695061 222.4903 33.0
126.68821740103886 61.33633216936141 222.3737 28.0
126.52191770658828 61.344330937601626 222.3598 28.0
118.77729775989428 64.37250229343772 225.0684 23.0
123.05787098081782 63.17842263914645 222.3995 23.0
109.40452062583063 70.99357166979462 224.8652 39.0
118.72629936714657 63.87536558136344 225.3399 30.0
118.77494824875612 63.427457046695054 225.667 30.0
118.72601709153969 64.43567920383066 223.9655 22.0
126.49531585490331 56.80661192536354 226.3177 23.0
118.45404336077627 63.380382870323956 224.993 23.0
118.23107457300648 63.754928801208735 224.5963 22.0
119.26179421180859 62.47373252175748 225.2441 21.0
118.86057390039787 62.99049483798444 224.8556 25.0
118.6942430838244 63.335352551192045 224.4371 34.0
125.53995800763369 56.46768434997648 225.8575 21.0
108.61623926530592 70.64666717872024 224.8673 21.0
108.98938761220779 70.25704118888825 224.8572 23.0
125.14702694618609 57.57388342823833 223.0757 20.0
125.57705385924783 57.17569953203201 222.9386 31.0
131.94839867041446 50.771798552945256 223.826 49.0
108.9159013510216 69.91164200287312 224.871 20.0
122.62936437292956 58.69607315957546 222.4294 22.0
122.15830998646561 58.8764227963984 222.4461 22.0
127.11713065486401 54.14756519161165 222.4372 28.0
121.28970579733141 59.21564527787268 222.4726 41.0
118.11491609399673 60.02206078264862 225.4378 51.0
108.84903153544292 69.51971771474928 224.8597 30.0
117.29079480562359 60.87048398889601 223.869 30.0
117.05692865198944 60.60549789108336 224.2534 40.0
117.1233227943303 59.79561102390289 225.0324 23.0
108.54279446695 69.17062179837376 224.8555 30.0
117.16497941198759 60.69051572307944 223.7404 22.0
117.02970797545277 59.81435292772949 225.0148 21.0
108.49298346310388 69.17602529469877 224.8533 32.0
108.44943415978923 69.17936457041651 224.851 27.0
133.41458835359663 39.87839434761554 226.2458 45.0
124.70345112553332 52.158394175581634 222.5525 26.0
130.1118961244356 43.51539528463036 225.2978 48.0
124.35859158250969 52.25968453660607 222.5126 34.0
108.27470539533533 68.81693748477846 224.8511 34.0
130.82707707607187 44.02053442876786 222.3392 23.0
126.30619917716831 49.16854154597968 222.4265 37.0
126.09775652119424 49.24662013351917 222.4056 36.0
125.61805296107195 49.49234263319522 222.3817 35.0
123.3213373614708 49.19044533651322 226.11 25.0
122.17867692396976 53.31597919948399 222.4631 23.0
123.5059797737049 49.28519385587424 225.3127 33.0
117.7101932259975 55.61146869696677 225.8486 23.0
108.19295691768639 68.43019349407405 224.8525 41.0
117.65092041529715 55.59217299707234 225.8199 23.0
108.14220070117153 68.44224343821406 224.8522 47.0
117.55758814699948 55.59980461001396 225.7906 31.0
108.05544657330029 68.0386959137395 224.8511 46.0
118.64532446837984 55.18944515939802 222.4733 20.0
107.90015283157118 67.64452250953764 224.8524 46.0
114.42446764884517 57.880347553640604 225.0429 20.0
115.20394142717123 57.8412522636354 223.5058 35.0
122.92845902626868 45.41273854859173 224.5248 33.0
107.74438593687955 67.69614783674479 224.8529 46.0
115.02513084118254 57.883397282101214 223.477 35.0
119.82064574200194 48.2542436318472 224.5103 57.0
107.57998221064918 67.29396048933268 224.8632 27.0
107.49248794233426 67.31619345396757 224.857 21.0
119.01602685532998 48.82411412522197 224.4419 40.0
107.37635953875724 66.87743461597711 224.8578 27.0
115.41081961337477 52.66799438558519 224.6061 21.0
107.2730810046196 66.39119748212397 224.851 47.0
115.99007740616798 48.69155512843281 222.5702 21.0
115.73538802319672 48.84850350860506 222.5429 26.0
106.65367534430698 65.5382966324687 224.8417 36.0
106.47931969724596 65.03913415595889 224.8578 38.0
111.35240998573136 50.83377155754715 222.6313 21.0
105.90718370466493 63.94507476594299 224.8503 21.0
105.72240167984273 63.245532566681504 224.8516 40.0
105.56574304075912 63.36272837314755 224.8499 28.0
105.308938694885 62.656907284632325 224.8587 21.0
101.28397050313652 70.82926870882511 225.0555 22.0
101.19874287536368 70.64032738935202 225.0615 23.0
101.18895470921416 70.65897813811898 225.0611 24.0
101.1892255601706 70.89245199877769 225.0632 26.0
101.14647631952539 70.68124440964311 225.0648 41.0
101.09777622483671 70.4598797345534 225.07 25.0
101.14694498316385 70.90694106835872 225.0621 47.0
101.06854035705328 70.48025933280587 225.0747 35.0
101.11873909272254 70.91734113451093 225.0622 41.0
101.07277422584593 70.71049874741584 225.0652 50.0
101.02318544674199 70.49355845991522 225.0719 56.0
101.04376442881767 70.72199011500925 225.0651 50.0
101.06014166364912 70.93252693861723 225.058 26.0
100.95037109532859 70.24378676246852 225.0642 33.0
100.98358357686084 70.52479187678546 225.0714 56.0
101.00568559626117 70.754374015145 225.0662 48.0
100.8816893020412 69.98411444947124 225.0558 28.0
100.95365683850832 70.54181865975261 225.0742 56.0
100.93941259919666 70.55257383640856 225.0773 52.0
100.88153335638344 70.29539977759123 225.0681 53.0
100.86576608067844 70.30500446911901 225.0699 53.0
100.8493927095551 70.30792325921357 225.0677 53.0
100.87903780350462 70.57660841476172 225.0772 52.0
100.73257889971137 69.74351966474205 225.0617 40.0
100.81883161619771 70.31937517225742 225.0665 53.0
100.7002404400846 69.76382035017014 225.0645 43.0
100.78677574556787 70.32856556866318 225.0643 61.0
100.72171785635874 70.07899115607142 225.0696 31.0
100.71253578655887 70.10432780627161 225.0723 33.0
100.57843457278796 69.48723238520324 225.0626 30.0
100.6242523198016 69.82192198559642 225.0684 64.0
100.54227439232636 69.5052123721689 225.0632 56.0
100.52725450426806 69.51594782155007 225.0648 56.0
100.43863484147005 69.18572831247002 225.067 36.0
100.55899756506551 69.85472642630339 225.0704 64.0
100.47383226919919 69.54127098899335 225.0654 60.0
100.52237258350942 69.86046537104994 225.0653 45.0
100.36988187162206 69.23400824703276 225.0735 36.0
100.42270871857181 69.56776436977088 225.0664 56.0
100.3236791981617 69.28063824027777 225.0775 41.0
100.3756046986673 69.58880124706775 225.0589 23.0
100.2861655318411 69.2908015716821 225.0743 39.0
100.0852542896755 68.49301554076374 225.0669 33.0
100.23081197286956 69.30051115341485 225.0671 25.0
100.00647441344336 68.53881695307791 225.0692 38.0
99.97017293702811 68.56235208828002 225.0715 50.0
99.93013451504521 68.58023343700916 225.0707 43.0
99.89192997326609 68.58704395685345 225.0602 31.0
96.32345558761153 69.43126225005835 225.185 50.0
96.30065097426996 69.442911461927 225.1876 53.0
96.24693349306472 69.44932744838297 225.185 50.0
96.56398355541751 69.89208452682942 225.1824 47.0
96.5200386577053 69.91097828838974 225.1797 70.0
96.8034278913401 70.30396236758679 225.1789 30.0
96.46853509102948 69.92189757153392 225.1783 64.0
96.7641933959676 70.32075243629515 225.1813 32.0
96.69617517385632 70.34014566242695 225.1812 56.0
96.63874901016243 70.33979683369398 225.174 22.0
92.93795727356337 70.435780887492 225.299 65.0
92.79547692113556 70.45328033342957 225.2998 99.0
93.22861708817072 70.97014162968844 225.2909 54.0
93.1196153103374 71.01406273338944 225.2966 90.0
92.99790790351108 71.03876098431647 225.2994 35.0
93.38908114575315 71.49674406927079 225.2896 71.0
93.27786546316929 71.5361618725583 225.2915 52.0
91.38250595866702 70.62079366762191 225.2984 61.0
93.91959645890165 72.39629962760955 225.2959 44.0
93.80705555318855 72.42678973823786 225.2967 64.0
94.15998891426716 72.7403848869726 225.2824 20.0
94.07256398978643 72.79041348397732 225.2865 75.0
94.0052366789896 72.81315955426544 225.2878 70.0
92.01164319377858 71.79301193077117 225.2919 39.0
93.90723527234513 72.85180168226361 225.2924 28.0
91.83253791648895 71.81625039037317 225.2886 41.0
94.31137686851434 73.13557032309473 225.2889 40.0
94.20694422884844 73.18294285610318 225.2872 76.0
94.1275300970301 73.2231694702059 225.2942 75.0
94.46915508632082 73.49311888031662 225.2885 34.0
94.36270634259563 73.52821091283113 225.286 64.0
94.3150372246746 73.57146841008216 225.2854 56.0
92.46042745991144 72.8238983610645 225.293 36.0
94.64401308156084 73.81997291464359 225.2844 31.0
94.5463634695625 73.87530019227415 225.2923 36.0
92.59072891215328 73.28525229450315 225.2855 63.0
94.78058178373612 74.15697059128433 225.2942 40.0
94.71701968845446 74.18425940535963 225.293 67.0
94.6457576402463 74.20912888739258 225.2883 41.0
93.00047945266124 73.65365630574524 225.2989 38.0
94.96442685404327 74.40511914435774 225.284 31.0
92.83543334179558 73.70393424388021 225.2879 76.0
94.88771971315145 74.46097906120121 225.2844 50.0
94.79204526590183 74.49968035984784 225.2795 48.0
94.74233178724535 74.53176838438958 225.2833 23.0
95.10493315011263 74.67884737346321 225.2784 25.0
95.08284768962767 74.6927383756265 225.2798 26.0
93.09625963447616 74.06855061650276 225.2881 64.0
92.99928821565118 74.09721322823316 225.2838 60.0
94.98549335380085 74.76697286125273 225.2819 50.0
94.90208797168452 74.81154494173825 225.2814 50.0
95.19913937652018 74.97252122405916 225.2772 50.0
93.2766008656472 74.45446668192744 225.2917 55.0
95.10824453644454 75.0369142703712 225.2835 86.0
95.03530260478146 75.0973169375211 225.2832 62.0
93.5719384632539 74.77437917236239 225.2994 29.0
95.30514984042384 75.25982481520623 225.2816 45.0
93.45259902300313 74.82804307248443 225.2988 63.0
95.24176998925395 75.31046495493501 225.2872 39.0
95.1835243999958 75.34233597200364 225.2839 39.0
75.63288282218855 70.98735709115863 224.996 26.0
93.70115903043188 75.12564265262336 225.2925 51.0
95.43155317008495 75.53875309973955 225.293 21.0
95.3612207575934 75.58810466062278 225.2934 40.0
95.30214300798252 75.62217800691724 225.2896 25.0
95.60565673885867 75.71216683275998 225.2803 30.0
95.59127123199869 75.72847716603428 225.284 30.0
60.39903939526994 69.35370171070099 223.8764 48.0
93.8692622515373 75.4434308912605 225.2879 24.0
95.52913184114732 75.79137807432562 225.2835 48.0
93.78358646156266 75.48572174552828 225.2844 50.0
95.46494808874559 75.84310951177031 225.2856 52.0
58.57946975470986 71.01285381428897 223.5376 68.0
63.35550698742736 71.2110104970634 224.8692 39.0
58.560718295164406 71.23139118496329 223.6511 51.0
95.57665793900378 76.08942341338843 225.2789 50.0
93.85019011620898 75.8576276069507 225.2812 82.0
62.56000392790884 71.85004806797951 224.149 25.0
76.68583157542162 73.56225903239101 225.0014 52.0
95.79673801432364 76.2250953540206 225.2773 48.0
57.88381219794974 71.35759434103966 224.8508 26.0
95.75624752929434 76.26075318828225 225.2777 51.0
95.7395068256883 76.27811536658555 225.2798 51.0
94.11772023234516 76.11123979091644 225.2876 37.0
95.70172331901267 76.32940651569515 225.28 51.0
94.00114430859685 76.1783149316907 225.2821 37.0
95.96529899502639 76.40281511936337 225.2724 47.0
61.93213595577981 72.91692408360541 224.6763 53.0
61.13809202320408 73.40702481009066 223.8318 23.0
57.180288491537794 72.31693107262254 225.3359 27.0
95.91659991908818 76.4560521338135 225.2772 47.0
94.34029108006507 76.36259675957263 225.2953 31.0
61.819913771469146 73.08750300854445 225.8203 32.0
95.80871006834786 76.54780660755932 225.2728 51.0
55.78788546239957 73.41550776455551 224.6784 39.0
51.71986321406439 72.81400718539953 225.5034 49.0
95.79040250065736 76.59625786356628 225.2805 21.0
96.07014102628455 76.64450736530125 225.2733 33.0
60.25129227875732 74.98094397038221 223.51 24.0
60.54632524668705 74.18354119174182 225.286 29.0
95.99614087748341 76.71600058209151 225.2725 59.0
59.965648739016615 74.8291534660384 224.5072 37.0
95.97546542575583 76.73548617772758 225.2724 64.0
60.20321757614147 74.94859259948134 224.5879 25.0
94.47635396826081 76.65844691358507 225.2923 26.0
95.9396005643066 76.77237340807915 225.2729 59.0
60.23611076246016 75.15065524354577 224.6998 37.0
60.294481831020676 74.80860964860767 225.6126 44.0
94.37986008869484 76.72936804965138 225.2896 38.0
58.37664296780713 76.54753222875297 223.0123 24.0
96.16231838299427 76.8958832276985 225.2752 39.0
58.56789926229976 76.99264732468873 223.2794 24.0
48.58316415385343 75.5113960178569 225.4899 23.0
96.0952707970282 76.96866502333432 225.2759 39.0
48.39016456785612 75.62322220299393 225.5429 47.0
94.59144612820819 76.95487545523793 225.2806 61.0
96.03706616070122 77.02944250591099 225.2756 42.0
94.52418806694914 77.00541696324944 225.2776 53.0
96.0406052992912 77.04287348967046 225.2854 34.0
57.71211735450197 77.0720556518063 224.3997 27.0
96.27103862958029 77.13767411746085 225.2815 53.0
41.1850555727724 77.67352733388543 224.7513 63.0
96.22578123654239 77.17765769828111 225.2754 60.0
96.21208660420962 77.19732084311545 225.2771 60.0
56.536291184835136 79.17671159654856 223.0126 22.0
56.709380782675 78.99322758708149 224.1457 50.0
96.40558415593114 77.3100817585364 225.2769 30.0
96.4001673135208 77.33996116742492 225.2782 31.0
40.22493160609156 78.4073276091367 226.7174 25.0
40.0854777675122 78.58054977469146 226.8079 25.0
96.36540161934681 77.39466430991888 225.2848 30.0
55.17696452618111 79.82920707669109 224.4132 26.0
94.92338426504284 77.48361568059772 225.2832 23.0
96.3254889792297 77.43811907153577 225.2814 34.0
94.87086348899174 77.53453201055527 225.2827 47.0
96.2910906386096 77.47837884072214 225.2798 33.0
96.26134617743082 77.51875697541982 225.2819 27.0
54.62294946925249 81.01358333043754 223.736 21.0
94.74628949025646 77.64142662473023 225.2748 33.0
54.34093006979674 80.87189095281065 224.8835 27.0
96.4452816392295 77.64128041826189 225.2708 70.0
96.41321023833007 77.68159937020391 225.2697 79.0
53.79324032959994 81.53279522620142 225.1857 27.0
77.50959453149699 78.0991254914552 227.4912 21.0
52.716853037360124 83.66443869192153 222.2379 53.0
53.09212643187493 81.87850923836231 225.2929 28.0
96.64192559267394 77.72188069205731 225.2648 21.0
52.20711815939285 83.87049186509103 222.2478 54.0
53.0026679802686 82.00853247754276 225.3552 28.0
96.63296961248852 77.73832911811769 225.2673 32.0
52.33145739219617 82.21603853721172 225.3888 28.0
94.86896853428334 77.9447186216712 225.2682 24.0
77.4692454416072 78.1292283013463 228.1543 32.0
51.5977610652335 83.75160535052419 223.4379 28.0
51.60161903244443 83.9051245432347 223.5158 57.0
51.594548564055 84.0305721834302 223.5846 57.0
96.58047418796923 77.84928044117987 225.2732 59.0
51.14433091087267 84.4905053563416 223.7612 28.0
95.18740167072974 78.05843358580023 225.2794 39.0
96.53068863321096 77.91471904143691 225.2698 64.0
96.5208722333191 77.9344808254391 225.2724 59.0
51.38521946838591 84.11307763401419 224.9654 31.0
50.55374730983749 85.00690386630595 223.9447 27.0
95.10444557270966 78.14637524075806 225.2758 55.0
95.55082574824337 77.50179740414023 226.349 126.0
96.75144970836118 77.96258029062301 225.2667 37.0
51.886300539947115 86.23146749474108 222.1026 30.0
95.04945657285862 78.20278752967715 225.2723 73.0
95.59912343719043 77.58640686050057 226.2316 131.0
51.61295038124081 86.54247672483325 222.2109 30.0
50.606326589128 84.89261908549815 225.2863 20.0
95.58121436589863 77.55815767589957 226.3813 125.0
80.23730213602539 80.71106040291488 225.0174 27.0
95.59095867688302 77.5717464806512 226.3921 125.0
49.623807155527174 85.98827801365405 224.3191 27.0
95.62836905638687 77.65719077922404 226.2716 140.0
95.61438204662409 77.59680067189038 226.415 112.0
96.68833397876006 78.0943846963346 225.2716 40.0
49.64166161546018 85.62185546103865 225.5435 26.0
49.43003294989467 86.43583206925541 224.5354 26.0
95.6529198520584 77.69894985575229 226.304 91.0
48.99597265035845 86.65715059265494 224.582 26.0
49.60042624780908 86.66362573113292 224.6929 26.0
48.55977435479872 86.3825755994767 225.8093 32.0
96.62825163942762 78.19847256783396 225.2753 44.0
48.23618337418884 87.23484008945525 224.7705 25.0
96.61136964848265 78.22138988692313 225.2732 30.0
48.327958892681636 87.34946005418897 224.8513 25.0
95.19077935931273 78.50544196739793 225.276 21.0
47.46959917107597 89.17869402188808 222.6951 30.0
47.20299367047846 89.40760564059019 222.7511 30.0
46.70236704032868 89.68281914107502 222.7868 30.0
46.626557948300615 89.15392351802438 224.0123 21.0
46.16207768802997 90.11378054693341 222.8993 30.0
45.99703122256324 88.75992318149656 225.2192 24.0
46.484771742718294 90.1820197077468 223.0113 30.0
91.66943783813622 79.44980693235993 225.1981 23.0
46.21012800349854 89.6892031589523 224.2249 21.0
46.07560997444671 90.58407451119274 223.1384 30.0
95.45154474198353 78.65882489271462 225.2807 30.0
96.77381015126593 78.3956187684089 225.2742 48.0
46.34602393466048 89.2590771028772 225.5619 24.0
55.13390561961569 89.61148672644049 222.0476 56.0
45.717471877578646 90.26145584974438 224.4425 43.0
44.80229396186769 91.36438642255962 223.2737 30.0
95.39044803322759 78.74176377616823 225.2807 30.0
54.187285807100125 90.14996072929353 222.0684 29.0
44.547154263127595 90.86761886812747 224.54 22.0
95.34465376043227 78.8028569072485 225.2803 30.0
53.64421700069215 90.59863878507167 222.1465 29.0
44.6528842181433 91.1660318383947 224.7198 22.0
44.673758167773485 91.47451650071889 224.8954 22.0
96.9671381067019 78.5150458747521 225.2768 31.0
41.24880929896608 94.27575425524265 222.3316 38.0
91.92720230587292 79.84325082786381 225.1977 23.0
96.93642019294202 78.56318148225546 225.2727 30.0
43.842888302286156 92.16157391667366 225.1083 22.0
91.85894259414636 79.9026608671993 225.1943 28.0
42.198788655688986 94.33770715910941 222.6105 36.0
96.91512306767981 78.60710970778018 225.2734 34.0
43.37364791799337 92.60657123010606 225.2604 23.0
96.90450276318006 78.62796279229224 225.2737 38.0
96.89776069030631 78.64891451504081 225.2766 34.0
42.28296555648558 94.01855250354856 224.1437 31.0
41.36956133204512 95.23492682445794 222.885 38.0
95.51465005520731 79.04620626941323 225.2696 61.0
41.26006013609003 95.45115689001977 222.9742 38.0
95.49363551929127 79.07902421150357 225.2696 70.0
97.10625268565491 78.69090498704463 225.2629 37.0
40.40332537237555 95.44605047535151 224.4923 33.0
97.09994716208894 78.72520878445357 225.2713 37.0
53.33394527027849 93.36900546401739 222.137 27.0
97.0809769751504 78.76919619273394 225.2722 40.0
40.42709728353657 95.94582927972078 224.7741 33.0
92.12457651935983 80.29185792803764 225.1966 25.0
97.07268360909075 78.79010845907032 225.2735 35.0
38.63061447115615 97.55220980383456 223.4367 43.0
38.87902433099225 98.49684004299343 222.1859 30.0
38.65166664205026 98.73897908441722 222.2515 30.0
37.97400935413316 98.3148504011333 223.6825 44.0
56.93717051972635 93.69075797777623 222.1046 23.0
37.29494595131837 98.89237007126212 223.8216 46.0
35.96139795251656 100.48495107796043 222.4141 34.0
55.86572139686905 94.4072723602876 222.1068 48.0
36.872171049471945 99.43304769415408 223.9979 46.0
55.39892519719433 94.7255917750299 222.1153 50.0
82.01946948864497 84.18501248024404 225.0014 42.0
97.21735341334715 78.99167905934155 225.2655 34.0
34.98064462677576 101.99978561513126 222.9466 35.0
34.902119289617985 101.3029473181814 224.5067 50.0
92.29137412097771 80.78304552100599 225.1899 49.0
97.18371514161117 79.0630870833993 225.2622 40.0
33.80681621551048 103.04944828897715 223.1747 37.0
97.1762256801594 79.08290805015713 225.2627 40.0
33.74030789535027 102.30733390524983 224.7533 52.0
58.44817543285899 95.25338496360928 222.1083 22.0
33.083129050326534 103.73367331642658 223.3353 38.0
96.8873813097598 79.24010017514229 225.2694 27.0
95.86022321309429 79.61865150090307 225.2706 36.0
97.1642207307741 79.15820154175162 225.2684 45.0
33.203044541645795 104.08469884097576 223.5472 38.0
95.82916621933691 79.68011945672333 225.272 42.0
56.48761040624231 96.68882619217038 222.1186 22.0
95.80499258311465 79.71508054435253 225.2688 36.0
95.79262318694964 79.74367137439549 225.271 22.0
55.32419421884697 97.51195335295051 222.115 22.0
31.269896292942576 105.72429438121617 223.8746 41.0
97.11460182722658 79.27812000364065 225.2674 25.0
43.868755606235936 102.19463680870831 222.0977 36.0
97.37753613339737 79.19364422094077 225.268 32.0
97.3605128513882 79.22211668174714 225.2623 53.0
97.35537858621683 79.24088580347598 225.2639 53.0
24.373938709497452 110.63633120339364 222.2389 63.0
92.4943727402715 81.28515955992043 225.1999 20.0
59.94986929872539 96.87692169379443 222.1519 23.0
97.3444445397472 79.3351062387228 225.2735 53.0
96.06021534383763 79.87276952061802 225.2759 32.0
58.86731229792349 97.81661427486688 222.1962 22.0
96.02284014818724 79.93852376751602 225.2723 48.0
96.00176909635775 79.97356376610696 225.2702 60.0
57.66942887206096 98.98795317206532 222.3095 21.0
97.28674275265075 79.49817726761103 225.2739 62.0
92.84407731378451 81.57310235127807 225.1955 21.0
97.51314958161674 79.44612486939877 225.257 24.0
92.82507890753914 81.61820080131292 225.203 22.0
97.50238798570354 79.47253309562802 225.2548 28.0
92.77296648337506 81.68358024768531 225.2 22.0
97.50780192820821 79.50379972532392 225.2585 43.0
97.50183550047223 79.52477117720991 225.2593 50.0
21.12016750476323 117.5431651873514 222.349 57.0
20.550305845215917 118.06898708082736 222.4267 57.0
96.21916451887228 80.2147834552452 225.2758 24.0
97.47025426232722 79.6373661737889 225.2614 42.0
96.20122430915944 80.2487913351506 225.2737 22.0
97.46425957651809 79.65944865345955 225.2616 42.0
96.1792928376235 80.28714469261467 225.2697 28.0
57.70027913432568 101.52907988522202 222.143 29.0
96.16365130874328 80.32232278492302 225.2697 28.0
97.45617669424973 79.70260122511536 225.2656 50.0
96.14645848795772 80.35746142175049 225.2679 30.0
97.44619074522052 79.72902917955071 225.2639 50.0
97.44257951434702 79.74894878454506 225.2659 50.0
93.0733630467439 82.07922023069113 225.1959 27.0
93.04095260135364 82.13287154398859 225.1972 37.0
97.4163712853333 79.86390393506736 225.2631 30.0
62.396113951224834 100.51561666000634 222.2649 23.0
96.39522172289435 80.52499184757471 225.2671 77.0
96.3757994187763 80.58675571810454 225.2697 80.0
96.35297926934436 80.62953345943242 225.265 78.0
96.32294934871607 80.74216792080551 225.2657 67.0
96.59656149474904 80.90921861398965 225.2734 27.0
96.55966378818266 81.01723140850663 225.2717 33.0
96.50533451675437 81.13925356417894 225.2602 54.0
96.4951225098921 81.17456974834204 225.2606 39.0
96.48410659946967 81.21097723674029 225.2606 24.0
92.87627621472348 83.32825872953981 226.4684 30.0
92.88803662802093 83.35412803012878 226.4835 46.0
96.77664216328412 81.42742612864822 225.2743 23.0
92.91270044550765 83.39144298341125 226.5013 46.0
96.77202922513243 81.45621423795819 225.2767 22.0
92.95516029698774 83.46145122405142 226.5477 39.0
96.73484893806744 81.57533731590956 225.271 45.0
92.97928722412325 83.51987572386861 226.5804 32.0
92.69589774275664 84.34759046975523 226.0812 24.0
93.05125970183872 83.68068611994386 226.6736 27.0
97.01339749153703 81.7313961116597 225.2609 27.0
97.00149290030822 81.77222798485309 225.2579 30.0
93.12823783478234 83.8583000395447 226.7662 29.0
96.98412762908265 81.87517882883549 225.2597 29.0
93.16573297523428 83.9404112342745 226.8133 29.0
93.18381158076227 83.96199424006045 226.8291 27.0
93.19715154031292 83.98679196462035 226.8443 29.0
93.22875234507956 84.05652402620763 226.8762 29.0
93.26699487119913 84.13976597972214 226.9233 27.0
93.30362958996557 84.22519053705037 226.9702 32.0
93.33552566182334 84.3138298150152 227.0158 39.0
93.94770978216548 85.48117022123188 227.6481 20.0
93.95996325649321 85.51816953718662 227.6654 20.0
93.97396582423244 85.54743110761046 227.6808 20.0
94.00188618688844 85.60928733460605 227.7125 20.0
94.4231245884439 86.380436248146 226.7919 20.0
94.70589837362058 86.9501724652946 226.3687 20.0
94.91287916502915 87.63137923367321 226.233 35.0
95.15653324173763 87.8777137491852 226.3958 21.0
94.9196102374699 88.73996265139431 226.0302 24.0
94.97666310693603 88.87704691570252 226.0707 24.0
95.39930263685528 88.34192827809602 226.574 21.0
96.20158378989436 88.44349105283618 225.1741 23.0
95.51906104851514 88.66849271859974 226.305 24.0
95.4789184074616 88.50738009717315 226.6294 20.0
95.53105039324146 88.62432775646448 226.6694 20.0
95.47018850664608 88.51494029536843 226.9864 20.0
95.56532985717058 88.71080417372286 226.6968 20.0
95.6047153165564 88.77962249610573 226.7239 22.0
95.71912207058631 88.95040618348867 226.431 24.0
95.66049945959821 88.90555702522397 226.7658 20.0
95.78415743412916 89.07879950292408 226.4711 24.0
95.70457972667646 89.0034001916647 226.7939 20.0
95.73808354092762 89.08985688257962 226.8198 20.0
95.77158735401463 89.17631357349455 226.8459 20.0
95.90310212015174 89.3152917129919 226.5502 24.0
95.83133448823355 89.29901365656406 226.8878 20.0
95.57596972468309 88.87227817066014 227.8125 20.0
95.85048397339415 89.33952361345291 226.9012 20.0
95.87184736155905 89.38453686796129 226.9162 22.0
95.61412741150707 88.95885322522372 227.845 20.0
95.89401465223636 89.42845882289112 226.9315 22.0
95.9182828143239 89.48132819123566 226.944 22.0
95.93729100865312 89.52739329170436 226.9581 20.0
96.06664837582503 89.6596460789442 226.6543 24.0
96.08970434078947 89.69914364721626 226.6683 24.0
96.11032033897936 89.74302614666522 226.6818 24.0
96.13237459480297 89.79139221739024 226.6961 23.0
96.15227146307006 89.8330329330638 226.7089 23.0
96.0595770025393 89.7850936902687 227.0416 20.0
96.08082735573407 89.83455106057227 227.0567 22.0
95.8337813464459 89.44693830236793 228.0203 21.0
95.8591642488027 89.48649505432695 228.0378 20.0
96.25535144575406 90.05244543310255 226.7744 23.0
96.3648188059451 90.29536709096283 226.8399 23.0
96.38753567042295 90.34819700475782 226.8542 23.0
96.41191685607191 90.39662226010114 226.8688 23.0
96.43034720479045 90.4348904332146 226.8802 23.0
96.55113838450052 90.69032932911068 226.9491 23.0
96.5318135546986 90.77877761889249 227.3412 20.0
90.1237579532899 101.28412604052573 232.9679 23.0
96.55553212482482 90.82273903023452 227.3553 20.0
90.2144955357071 101.25641660485417 232.9867 22.0
96.57758637273218 90.87110510375351 227.3692 20.0
96.60127668397035 90.91617754474282 227.3833 22.0
96.74559151171707 91.16220902092755 227.0682 23.0
96.67410938860849 91.0736746294424 227.4289 22.0
96.72807519743219 91.17955146823078 227.4572 20.0
97.1852478494402 92.2162104723975 225.6305 22.0
96.7743975892663 91.28078691475093 227.4855 20.0
96.90509280003607 91.45198490936309 227.1515 23.0
96.98455451952759 91.59297438990325 227.1938 23.0
97.01181220868602 91.65036678966135 227.2088 23.0
97.03400774032343 91.6931777196005 227.2205 23.0
97.05732487130444 91.87498561386019 227.6496 21.0
97.19746908766683 92.04086520709097 227.3062 23.0
97.1403539647581 92.02829505223781 227.6953 21.0
97.27960949763656 92.19859903585166 227.3488 23.0
97.21819228050299 92.20259567163885 227.741 21.0
97.27109984238632 92.31956307590008 227.7714 21.0
97.29680623603053 92.3769160201773 227.7862 21.0
97.38502317701932 92.57038032263517 227.8327 22.0
97.55799584963825 92.78823527973145 227.4903 23.0
97.58583136438392 92.85342461057007 227.505 23.0
97.79803938267287 93.32909117173404 226.7381 23.0
97.82598792528734 93.38983639050275 226.7497 23.0
97.78592724131886 93.28653670102358 227.6055 23.0
97.8204327103449 93.3641249043867 227.6197 23.0
97.85231599165127 93.42274670489132 227.6348 23.0
97.97207707713824 93.68816516175866 227.6936 23.0
98.06544090318494 93.89287785999477 227.7386 23.0
98.12958748172969 94.02569559402764 227.7686 23.0
98.26645364472643 94.32045455183834 227.8299 23.0
98.29946432914585 94.39578124228865 227.8456 23.0
98.39353166846558 94.63386426586658 227.8911 23.0
98.68260725890286 95.23044293187559 228.0169 23.0
99.10410840797704 96.08275649044663 228.1933 23.0
99.14967067050748 96.15284369327128 228.2109 23.0
99.18702435353771 96.24051007535309 228.2271 23.0
99.44424479501322 96.77735594566911 227.3266 21.0
97.8159404261969 117.09870848990977 225.0324 22.0
99.30823917000089 96.47928360011429 228.2762 23.0
99.47736848471686 96.84823852963746 228.3461 23.0
101.08240763610229 125.86898606736213 229.1358 24.0
101.20436538022477 125.89543478097767 231.5364 22.0
119.5240196067607 87.6503697829321 228.1555 22.0
136.29364695609547 97.61910691671073 224.3014 30.0
158.37695305759553 109.68310442008078 224.8788 58.0
151.93105708644725 104.95537110511214 224.9313 49.0
133.68570549204014 94.66332727111876 225.1005 26.0
133.59441865189 94.4075264185667 225.0479 34.0
134.75314268213697 93.46422528568655 224.4497 26.0
134.95479186275043 93.28702866472304 224.3083 35.0
137.80191659275442 94.3767104698345 222.8756 22.0
131.1143201412633 90.0264044366777 222.6203 21.0
140.0408615929773 92.92169437464327 222.7507 32.0
137.7334205431398 91.24206243548542 223.8032 27.0
146.75295469386037 93.8073154669255 224.8112 20.0
165.70897859940305 99.99178476259112 224.8321 30.0
165.76938885624986 99.8443476781249 224.7603 30.0
137.75653939438052 91.1570460125804 222.7648 28.0
132.7786754554836 88.39778843335807 224.8888 27.0
132.3306551987771 87.73379487544298 224.7352 36.0
132.6952166815754 88.38343601860106 223.204 30.0
135.7090486176312 89.2661256622523 222.6444 25.0
136.20296112413052 88.30924693029374 224.928 25.0
133.11039071180858 86.9520611455664 224.2133 39.0
133.48074753850233 86.82473805733025 224.065 41.0
144.58802220667712 89.33303712680936 224.5799 24.0
132.51839597593062 86.02870287932456 224.7957 20.0
132.4371417958755 85.927690227516 224.7706 27.0
133.98458769288845 86.66745839081705 223.8635 44.0
134.01845248183236 86.58716232422739 223.8205 44.0
136.8169219092233 87.75898679252714 222.648 23.0
133.2017027135007 85.68143289815634 224.4833 21.0
134.4493602794828 86.30684677325189 223.5863 46.0
134.09675307793077 86.01104544755071 222.6639 27.0
135.3515982759418 85.4081610320136 222.9389 69.0
135.78799818316475 85.27807124424726 222.7576 54.0
135.70718773000408 84.7935168389231 223.469 24.0
138.25278275087476 84.40357347670943 224.6202 35.0
135.7015537848929 84.92344800475985 222.6146 53.0
138.19773100037128 84.30989784374833 224.5855 35.0
135.63672952342313 84.8172945547849 222.5821 70.0
138.11684433557093 84.19444174412638 224.5453 34.0
135.43506821163464 84.68987195473164 222.576 51.0
137.95842135534622 84.07590131275356 224.5177 23.0
135.21410054399166 84.55862295813859 222.5735 49.0
137.80695091583766 83.95864951051772 224.4898 22.0
135.03953028586693 84.43411307223141 222.5615 48.0
113.99030334316194 80.10536744073033 224.8579 50.0
113.94561413803604 80.06198427826166 224.8547 50.0
113.80558003531769 79.9528062287718 224.8537 43.0
150.65711966273375 84.74139734730124 224.9801 24.0
130.23888204293326 82.85448369476944 223.1008 21.0
146.02022680535447 83.31489615235478 224.9136 20.0
127.1543816733174 81.08838322758675 224.4326 21.0
158.76554132113233 83.8870962029323 224.8991 46.0
134.0397765118396 81.29467353969812 224.7271 25.0
140.2406033144798 81.16559542901814 224.6221 29.0
113.68556120316498 79.20932942163199 224.8653 27.0
113.58467372262385 79.14784054458141 224.8662 50.0
133.12950545886997 80.49551625642926 224.4588 22.0
113.52740460005589 79.1108078788966 224.8679 45.0
113.48093800363131 79.0762734906748 224.8666 48.0
133.20993509318214 79.92723577097058 224.9757 21.0
113.36803583102301 78.99891453515738 224.8674 50.0
144.55466548539698 80.45488153677434 224.7527 24.0
131.50651675090194 80.95562595129013 222.5786 24.0
113.30130504444242 78.93718275055289 224.8594 40.0
134.52119357977062 80.61541373282671 222.521 31.0
138.23084803961683 79.80482640396804 224.1802 25.0
132.9051180985989 80.22410013526678 222.6705 20.0
164.87072338338476 79.4031155668199 225.0986 27.0
138.70471370173618 78.99530028551817 224.6496 47.0
139.43177121202461 78.8503703540191 224.4837 25.0
138.91061243787408 78.74261302966624 224.4862 36.0
126.10764042113442 79.7043113000691 222.6041 25.0
139.50299930991605 78.67430281173438 224.3776 25.0
125.95259913755581 79.63588586822152 222.6101 25.0
139.40121087245643 78.58722038101405 224.3417 50.0
125.87055339338258 79.56598211359233 222.5945 25.0
139.42464070313144 78.48998264782131 224.2851 37.0
131.527522996068 78.42137542925775 224.3943 22.0
125.545563952066 79.435422539711 222.6088 25.0
143.8279753087554 78.02278863079846 224.6083 25.0
113.27121107210405 78.35052626952529 224.862 35.0
151.40457063762005 77.29725069086999 224.8153 60.0
113.10983881086577 78.25636993255466 224.8638 33.0
151.47487867670134 77.18786473479122 224.7498 30.0
113.05561574106105 78.22163824923337 224.8631 35.0
124.97565253311768 79.04737751465291 222.5523 25.0
133.5089192467276 78.73081907164305 222.564 27.0
133.2232573144138 77.6340390117839 224.5413 27.0
132.9543825755827 78.56217873934656 222.5797 25.0
132.98431262595113 78.48400606494397 222.5291 25.0
132.54525920422748 78.38278502877802 222.56 23.0
131.82821666193195 78.225575145334 222.608 25.0
131.54091051826254 78.07818594481796 222.5812 20.0
125.28965786669869 78.3282823851332 222.6956 27.0
134.37091808929108 76.60707515198737 224.6807 26.0
130.90246259688865 77.9129698658362 222.6147 23.0
142.01371697627474 75.78092912491411 224.5695 31.0
124.63324754021596 78.07589369826019 222.7173 21.0
130.42768252128735 77.62962522730231 222.5454 23.0
134.29137600876857 76.13367053121328 224.415 25.0
139.37980650458485 75.40151829086244 224.5244 25.0
139.03076872392558 75.33149232715368 224.4996 24.0
130.72233332158066 75.9628288820386 224.6398 26.0
130.79119024274405 75.81894161552191 224.5488 26.0
112.61237825360149 77.46104588732123 224.8611 24.0
131.2591208186932 76.55459336284548 222.5405 21.0
131.34377784049138 75.5150393564254 224.3195 27.0
133.72940493014175 74.94536829460412 224.6211 26.0
138.79706417687703 73.9314149133861 224.6956 34.0
124.9911548665259 75.44793280120939 224.8578 37.0
124.40707966045011 76.77606599219143 222.6094 20.0
132.3859895579517 75.61270477995276 222.6078 25.0
132.23499929415993 75.47656563669443 222.5468 25.0
131.5808310515713 75.22756849694997 222.4906 22.0
131.35969013650902 75.16413186769933 222.4841 22.0
133.24640555027872 73.55117832217366 224.6718 21.0
112.4892035558587 76.9331678757444 224.8657 21.0
133.3012128600385 73.47141502797604 224.6219 29.0
112.4320035331184 76.92393066734076 224.8695 20.0
133.39506016066298 73.32149305287749 224.5209 21.0
133.59182665753178 73.21421226020902 224.4493 30.0
141.3839405067265 71.24787530116737 225.1323 44.0
127.09991340932902 74.41206426452845 224.0301 20.0
131.13888804009184 73.22629715036601 224.5459 23.0
132.20641896896996 74.03723695036024 222.5016 24.0
131.31931261252612 73.05967792402953 224.4383 23.0
138.12801651027985 71.61307585518807 224.3082 27.0
124.01865700411145 75.53881565108895 222.542 20.0
131.70985427952837 73.93899990897626 222.4983 22.0
143.76991479261778 70.05452626850456 224.4642 69.0
130.77264049253426 73.77174210548401 222.4961 26.0
139.9195995447226 70.23117102403194 224.4925 20.0
140.17931340867653 69.9987526210025 224.3575 20.0
112.19083312386647 76.3663693163544 224.8625 34.0
129.3848919851007 73.52743002679199 222.5029 25.0
136.0983412009664 70.57754304260015 224.6297 28.0
