X Y Z Intensity
57.157615192234516 93.63446137856226 59.80545954592526 55.0
57.578410260379314 92.04277463653125 59.711426785215735 45.0
57.55868904106319 91.967777268379 59.742133780382574 22.0
57.04783944040537 93.87712669908069 59.86516068968922 44.0
60.537636757828295 87.07740940887015 59.941413783468306 22.0
57.01002235058695 93.81915811647195 59.91284533403814 44.0
60.483852352015674 87.1301751708379 60.06187401525676 22.0
56.969909145496786 93.72595571132842 59.96562398876995 54.0
60.429473048076034 87.17254721105564 60.21002923697233 26.0
57.34523460268974 92.21000135899521 59.91555717494339 20.0
56.85856464318931 93.94855032372288 60.03095490112901 52.0
56.82774457708001 93.91091977304313 60.06738000083715 49.0
56.777912504039705 93.80554545170162 60.133467867039144 59.0
57.10679028276354 92.3145345748635 60.12114113289863 44.0
57.07223089411855 92.21134621591773 60.17118497751653 27.0
56.67347741127014 94.02316186239477 60.19203644245863 39.0
56.632837401703 93.97096789989155 60.24119621422142 39.0
56.92246565036476 92.55452983162832 60.25334990117699 20.0
56.614840040914714 93.93978939857334 60.26952174305916 42.0
59.28886153455824 87.55110655236058 60.713889084756374 21.0
56.59365427494049 93.90008351637516 60.29772589541972 44.0
56.520653114654124 94.14991591800936 60.30664346180856 33.0
59.265926498919725 87.57114525558427 60.784063407219946 21.0
58.98186225350946 87.57586900924798 60.73364450503141 26.0
56.854498632252216 92.35391177237034 60.33178101480007 50.0
56.49584354739636 94.11345677217469 60.34938850346953 49.0
59.2311165202409 87.61654057307169 60.887148106470704 21.0
58.94764330238104 87.6229607060086 60.837662829086185 23.0
56.462023716419935 94.05310483672656 60.39106776565313 57.0
58.90262070577592 87.68613062228542 60.95148208364844 25.0
56.683577296324074 92.62339955673087 60.46262453868985 23.0
58.880655666813254 87.71189255465288 61.018976896069944 22.0
58.60227380786091 87.67819382983726 60.968326000496745 24.0
56.65454647690058 92.54658782132901 60.494724061340094 38.0
56.39966971427202 93.96900802908931 60.46943713258952 25.0
58.849229025654495 87.74371648265515 61.11801754869521 22.0
56.611797287128866 92.43785034341272 60.54815480764955 28.0
56.30921402480453 94.1909301050473 60.515862092375755 30.0
58.81670738104731 87.78244238707703 61.21890893764794 22.0
58.25643044151366 87.16252274042927 61.121572099626064 21.0
56.27972582541406 94.14723434078041 60.558828327804804 31.0
58.7849246468395 87.8197311022086 61.31866776570678 22.0
58.21476226206869 87.20974383421708 61.23404333461076 21.0
56.450253563933074 92.7060033455491 60.66587152797729 26.0
56.41780356038362 92.62931583588943 60.7009213110432 47.0
56.2102382062003 94.05542245449033 60.63803220447153 26.0
58.72251530457288 87.8858372697141 61.49052921310067 22.0
56.14491344150156 94.28303296444938 60.63276796601713 70.0
58.690797568298876 87.92551044560969 61.58922729641199 21.0
56.11546655651182 94.24329824349843 60.674960725940764 65.0
58.6592139294371 87.95651317527518 61.68954414781183 21.0
56.08082216884941 94.19464458303992 60.71971162036061 75.0
56.215153434313834 92.78588912053965 60.86518506053835 52.0
59.68466867506504 87.90732723416295 62.1595544423908 28.0
56.38183485902846 93.40025440580212 60.928503905422986 59.0
55.96957205981016 94.38247121800669 60.792650144547224 43.0
55.934855515137315 94.33380349376239 60.83413046691567 68.0
55.89705219678581 94.28137178684119 60.87813014537096 75.0
55.876856283284724 94.27506394556258 60.9011519504711 78.0
55.99021477997303 92.89700741274282 61.06338758021593 36.0
58.205310923978686 88.19377771299332 62.17109472118318 20.0
55.96005702856928 92.84290339739528 61.10042599122971 40.0
55.930988791398704 92.79138351557776 61.13748092018068 33.0
59.498799989931285 88.11065429658629 62.67431007698178 24.0
55.76915367785841 94.44776999100577 60.973101545125246 41.0
55.74628821760416 94.42196751653682 61.003946425393224 37.0
55.67057307716459 94.87287347076926 60.963555549271405 35.0
55.81492969207466 93.06523870502133 61.203364096581936 28.0
55.69784426409751 94.37932099413592 61.056669767946005 48.0
55.66672509070486 94.33372617000714 61.08483009878546 61.0
55.737526807934046 92.95923465141095 61.29091602098197 28.0
55.628783563151956 94.58485721924808 61.07840459514409 26.0
55.70397355221212 92.90367827971932 61.33061742037535 22.0
55.589314587414265 94.53842567105312 61.121901547536254 46.0
55.517625394277275 94.4770180407213 61.20647521223873 48.0
55.48957895580679 94.44309044594411 61.23525964003056 51.0
55.50598799623549 93.07539137650747 61.49780340772122 33.0
55.446269161999226 94.67894448107108 61.23635342344642 22.0
55.47003566287458 93.01778624625877 61.536267385818064 33.0
55.40793101489544 94.6390581089072 61.279093420132995 34.0
55.37338799610734 94.60860796167981 61.325943537056446 30.0
55.3381330575794 94.58829684206285 61.364490115083754 32.0
55.30642623733729 93.22624171897769 61.6544817648828 42.0
55.29560677986592 94.54285064444412 61.4098765803501 40.0
55.24795406777412 93.1421108864015 61.71760856639594 70.0
55.24774364475161 94.75805230147671 61.40228043682873 40.0
55.22838714718819 93.11457949120086 61.73867477104068 52.0
59.07969054300338 88.57922979805153 63.86772689316422 21.0
55.22854993119836 94.74482439702842 61.43134065531194 40.0
59.05160566512495 88.61961098993197 63.9526740917936 23.0
55.17851826455444 94.7145180075895 61.48648926988244 40.0
59.01262674666941 88.65549722732976 64.05285306368023 25.0
55.065625574439764 94.61029377463274 61.61191914509982 77.0
54.974636665545404 93.21217652515043 61.957733743824065 42.0
55.01991556864232 94.82275265885983 61.596378550864756 39.0
58.89609410613775 88.80671760218684 64.38795719668269 25.0
54.97874791175127 94.80998576711863 61.64959312789142 36.0
54.83280594833195 93.45570980454795 62.05541766807437 45.0
54.81296252273023 93.43049631395843 62.075064041651785 40.0
55.45442189183086 88.7217967424076 63.64497014787048 21.0
54.79188224580139 93.40820416144561 62.09882627334446 36.0
56.30004863627255 89.09769223013427 63.82026264257729 20.0
54.77080141566694 93.3835401077522 62.120522315613925 40.0
54.75327417906374 93.36589340807404 62.142411552369595 40.0
54.73180777672678 93.34194480720907 62.16545560956001 27.0
54.71095046494156 89.14613042783458 63.49154630023986 24.0
55.99872641917318 89.1765309657203 63.89797607623041 25.0
55.988585085608065 89.18008868547622 63.929936298169196 41.0
55.98026558663696 89.1895356514724 63.958515354432166 23.0
55.97264673933387 89.20465335366316 63.98732638452202 38.0
55.964541241526604 89.21809501585085 64.016910886392 38.0
56.20246389973909 89.20200701593421 64.12696430739015 23.0
55.94483390357345 89.22769437590614 64.07870984263718 26.0
54.60276947263628 93.59824899630621 62.25306211318821 30.0
54.73482172843069 94.8992196295876 61.8817451633513 43.0
56.17566898278892 89.22999001131393 64.21715991012752 20.0
55.92057057004422 89.27119211363606 64.16654624324292 41.0
54.5429503172636 93.53994537820108 62.31992341950536 37.0
54.675801577046514 94.86637084500398 61.94006522372365 56.0
56.39901191648096 89.25059043127112 64.3596209762618 46.0
55.89279574993998 89.29661233793013 64.23447769135237 45.0
54.48747105244547 93.49671833845787 62.374989424832165 35.0
54.64658962748945 94.84644686453976 61.97362838499248 53.0
55.63623957987875 89.32567135582212 64.18318461533636 22.0
56.38126936927438 89.27480347768869 64.41990602668375 46.0
55.87528452929109 89.31454568181653 64.29375729244202 45.0
55.867225837893784 89.32246228074655 64.32070106547326 47.0
55.857785150408745 89.33169073541649 64.35289325844496 41.0
54.60566426534206 95.05667583399918 61.95450769085437 30.0
56.844038404524326 89.27249351248611 64.6981541570276 32.0
55.594306925311685 89.38153743511066 64.32744442950934 32.0
56.33922709245235 89.32669521460775 64.564867509529 48.0
53.81865434534848 90.13677911728155 63.530783587135375 22.0
54.58456776291132 95.04940187197644 61.984413197264075 30.0
56.08300967514515 89.36056385096163 64.51486716233194 22.0
56.320205816067755 89.34749665448908 64.62797570414841 48.0
55.8144908817485 89.38966324354988 64.50098166801035 41.0
56.56553565710783 89.3676385639701 64.72872518002987 32.0
54.53092163335532 95.00890386861283 62.033888216130435 47.0
56.05681376438588 89.38945418444928 64.60265400446951 22.0
56.800174285657704 89.31849600770511 64.84649681393057 24.0
55.53956505283713 89.4372788912151 64.48585874494165 27.0
56.28281182516366 89.37578576884698 64.72666300088167 46.0
55.77796581014991 89.4212840902619 64.59641490969807 35.0
56.526429693214595 89.38057266920805 64.8306334912777 37.0
54.474044987000525 94.98358821962029 62.09267222043127 47.0
56.01927188411355 89.42087686515879 64.70340748969465 20.0
56.76427277550101 89.36763154703658 64.94282491598278 22.0
55.515452339313924 89.47290000098292 64.57069532386959 22.0
54.25764912832528 93.65827367501333 62.5654241014272 20.0
56.25906679779291 89.41859392612241 64.81009627506137 40.0
57.002615151926875 89.34450995270163 65.05670691933483 21.0
55.751710693351924 89.4541158711072 64.6849199263379 38.0
56.5005009425804 89.41663045529276 64.91850867588073 31.0
54.437489298172295 94.9685577758355 62.140527775511146 53.0
55.9936400167644 89.45541131077334 64.79128267150372 20.0
56.73870920948684 89.40217931126244 65.03077192045748 27.0
54.419895145110786 94.95485101733357 62.15673768427223 50.0
55.98469726368785 89.46315561316442 64.82049156818539 20.0
56.730389705859125 89.41162627807353 65.05935098137707 30.0
52.83148842584342 86.84287493221927 64.95217238087207 58.0
55.479800594970584 89.51417822227813 64.68968543130904 25.0
56.22513636481017 89.46574181166943 64.92719687521458 35.0
56.215437054634094 89.46938567806501 64.9580245371908 37.0
56.20635495427996 89.48184641089756 64.98802342731506 35.0
55.452776523306966 89.54132595239207 64.77788665611297 25.0
56.1993469549343 89.49708316358738 65.01428206451237 35.0
56.18891202751547 89.49979306594469 65.04737485107034 35.0
56.1704299999401 89.51911840424873 65.08518029749393 35.0
56.91599904932082 89.45807783899363 65.32842631544918 20.0
55.41435856372118 89.57178728759754 64.87756287120283 22.0
56.161665165796876 89.53085037169512 65.11375935655087 32.0
55.40593193657696 89.58595695986878 64.90536845382303 20.0
55.903957762755454 89.55256963800639 65.0646430645138 20.0
56.6410855865106 89.51123011612799 65.33677195943892 27.0
56.63310428801924 89.52311478985939 65.36457754578441 27.0
56.622263407334685 89.52574557578191 65.40043818112463 24.0
57.37494107428938 89.48269295017235 65.63846304267645 20.0
53.89341827202588 89.16073132259771 64.76677645277232 21.0
55.6193777853623 89.61174392479006 65.10431905277073 29.0
55.60978864971548 89.62173404498026 65.13651124760509 26.0
55.600854989141226 89.63343310751952 65.16651013772935 29.0
53.85325836855918 89.20192151842639 64.89076647162437 22.0
53.91091764625162 93.73142449813895 62.870758722536266 78.0
55.832019716501236 89.6365836133482 65.30546295735985 20.0
52.28043027501553 87.03353340213653 65.46666923258454 24.0
55.57559628691524 89.66566848184448 65.25111474748701 26.0
56.327132360078394 89.63425243692473 65.48389128874987 26.0
55.55624148249626 89.68166132760234 65.28897549025714 29.0
56.30826420430094 89.65192132629454 65.52097856067121 27.0
53.079015692695975 90.56027816294227 64.1605841293931 25.0
55.537501939572394 89.704098865157 65.35109475720674 29.0
56.287044851109385 89.65806361450814 65.59014743473381 26.0
52.994747892953455 90.46084227063693 64.2552574025467 24.0
55.52045947313309 89.73161073657684 65.4095455892384 29.0
55.50274277944118 89.74713223893195 65.46654354780912 31.0
53.77013675682247 93.99334605887998 62.96514980215579 35.0
55.476698346436024 89.78632985963486 65.55492145195603 29.0
53.72438407596201 93.96229243208654 63.01330409664661 45.0
55.45651923585683 89.8045338470256 65.61794130969793 31.0
53.69239849410951 93.95131507201586 63.04422651883215 42.0
55.43891216441989 89.82007671357132 65.65269163716584 35.0
51.8045111540705 87.35900653107092 65.85547768510878 60.0
53.67010698374361 93.93669283611234 63.06827601697296 51.0
55.42732851114124 89.82414393208455 65.68648607749492 35.0
53.61825704108924 93.89733551547397 63.11819844599813 42.0
53.596544712781906 93.88519795215689 63.14332520682365 42.0
53.576761341653764 93.8742269272916 63.16584427841008 27.0
53.60247906856239 90.0242850300856 65.24474266078323 22.0
53.58377648983151 90.08151604933664 65.32335266657174 27.0
55.849498085677624 89.90484029741492 66.11091095581651 20.0
53.572981611825526 90.0896899778163 65.35396486800164 29.0
55.091024859808385 89.97285296116024 65.89270826801658 22.0
55.320609274320304 89.96858012257144 66.01741323247552 21.0
55.31217354349792 89.97879503108561 66.04442882258445 22.0
53.536215285770595 90.13470393745229 65.44700585398823 27.0
55.05201035924256 90.0111040067859 65.99331811442971 22.0
53.52439974527806 90.14267894625664 65.47973954491317 29.0
53.48052629549056 94.17724465893116 63.2176332725212 25.0
53.463235322386026 90.20823702192865 65.65594877395779 21.0
53.34141642320901 94.10032541945111 63.36502414662391 23.0
53.450716386549175 90.21528434671927 65.68938412051648 25.0
53.31665753014386 94.08364111150149 63.387764405459166 23.0
53.44259462412447 90.22714163456112 65.71384731214494 24.0
53.2871205881238 94.06444439850748 63.41634988505393 25.0
53.41974427551031 90.2147823004052 65.75694568362087 29.0
53.248922631144524 94.05067509168293 63.45160935539752 22.0
53.411975919269025 90.25516997429077 65.78260751906782 36.0
53.40149556379765 90.26735818746965 65.81273351889104 39.0
53.632878358475864 90.28161963203456 65.98924267105758 20.0
48.38534725178033 81.33476887154393 70.09653193410486 20.0
42.918283144943416 71.8597330339253 75.61827719863504 42.0
42.82572131790221 71.78081801044755 75.76131278183311 43.0
42.681115290150046 71.61744429136161 75.96114349737763 43.0
54.678309314884245 90.45374226546846 67.09822892025113 22.0
41.54190175328404 72.43268421490211 76.81619040109217 21.0
41.55039001721889 72.53711574117187 76.86297748144716 32.0
41.47559999395162 72.50277514115442 76.98809038195759 32.0
34.25412286538631 56.38009193446487 87.1290343683213 26.0
32.334179741330445 53.38906488555949 89.47352434229106 23.0
50.62324598710984 91.64072452695109 66.29166855290532 34.0
23.079205522313714 45.76746156148147 100.22958836331964 48.0
33.84776543173939 67.09485500189476 85.73705992009491 22.0
33.80894085858017 67.27861197758466 85.90492542460561 22.0
48.02185141015798 89.3011284583481 69.08236208744347 23.0
28.377099982462823 64.11624711728655 88.45168240834028 33.0
28.46195129584521 64.34624329465441 88.44727020338178 32.0
36.82030352111906 73.33718718320597 82.01307734660804 50.0
36.793085168115795 73.43070681323297 82.09821192547679 50.0
29.72616197913885 66.27737343974877 87.51029452495277 20.0
27.517329565249383 60.3601949660806 93.08964498154819 24.0
30.641109532676637 66.26199065183755 88.37182168383151 30.0
30.592151551507413 66.46116563107353 88.55802357569337 30.0
50.25000757351518 82.7931496418314 77.55902068316936 22.0
35.44792948290706 75.50633505708538 81.76829851418734 27.0
35.44429516326636 75.594173234771 81.82189240306616 27.0
35.3535587862134 75.58992972562555 81.95436429232359 27.0
35.329790346324444 75.6627756577218 82.02932806592435 37.0
35.258177359588444 75.87176636850927 82.24723081570119 37.0
23.839785519987345 60.672839336446486 96.49584849458188 32.0
26.780271383933723 66.16496018704493 92.01463269907981 40.0
27.318188099190593 66.88645510864444 91.55828663241118 35.0
42.420392085798085 84.58693842729554 75.16187729220837 46.0
41.734433627687395 84.17258962104097 75.90427116304636 20.0
41.58874334115535 84.23116127948742 76.13723726943135 20.0
30.288247308693826 72.55274566460866 87.74362646881491 27.0
24.043215427547693 65.65367718657944 95.84191864542663 60.0
24.01090691704303 65.76596927666105 95.9431740641594 60.0
21.94997888430953 65.82918616407551 96.40449450351298 30.0
41.13177528325468 85.3864986934932 76.20591538026929 27.0
41.24772116262466 85.08890457765665 76.99460763856769 20.0
22.121180646121502 74.07599983154796 95.17587850056589 29.0
22.270290513522923 74.3327501254389 95.09648452047259 56.0
22.294903196394444 74.48222508304752 95.12696792278439 28.0
21.53457967378199 74.22494393400848 95.96081388182938 31.0
36.06553235091269 87.16462812002283 80.79167668242007 21.0
19.428007187321782 76.77278437768109 97.31848582439125 50.0
19.707372491247952 77.09444984747097 97.11390597280115 48.0
19.97030290775001 77.39551934506744 96.9205581722781 46.0
24.799810186959803 81.60268210014328 91.12660581152886 28.0
14.731585408560932 75.23609111597762 102.15156798902899 59.0
14.797492379322648 75.43630559986923 102.14604628365487 59.0
14.91982382722199 75.65067906258628 102.07588510680944 60.0
33.713585179299116 88.7278002371313 82.67438242584467 71.0
19.06466954294592 84.17859286721796 96.17623804416507 40.0
18.830026892013848 84.62461054697633 96.5329607585445 40.0
18.48573058657348 84.76622581726406 96.91657617967576 20.0
28.84760951437056 91.02800391754135 86.83769984357059 55.0
27.6100708656013 91.16788139403798 88.03326082136482 22.0
27.10560669004917 90.86717263353057 89.83333992306143 50.0
29.93435053806752 91.41531465132721 92.79914741776884 55.0
30.667714945971966 91.51555070013274 93.50115021783859 45.0
31.44055277481675 91.74048775306437 94.18789219576865 29.0
59.95566911716014 95.95863009092864 56.59595940634608 30.0
59.94311656896025 95.88661097176373 56.623334808275104 47.0
59.58212107233703 96.11114873038605 56.91375838499516 42.0
59.579214417375624 96.09160786808934 56.92292948067188 45.0
59.25963794905692 96.31156830454711 57.177734423428774 28.0
59.58146942127496 96.03828662657179 56.927465475164354 67.0
59.25708242598921 96.26916850858834 57.18913760688156 27.0
58.677729402668774 96.56499593856279 57.69573541916907 39.0
58.44277725555003 96.71290196594782 57.8846678705886 35.0
58.67164976429194 96.50767854065634 57.71659696754068 41.0
58.43826659582555 96.63296298938803 57.89945796504617 60.0
58.668644479475915 96.42328935675323 57.73203342128545 27.0
58.217204896733165 96.78515736013651 58.08733469247818 37.0
58.00893528666347 96.9177080480149 58.2523447163403 20.0
58.006375370547175 96.90218776080292 58.25946613959968 30.0
58.19846726115793 96.72221060760785 58.12141712009907 60.0
58.19864571187645 96.6993180232821 58.12187028955668 60.0
57.99786802660674 96.85625620465726 58.28331098519266 39.0
58.19568561576307 96.66079237998929 58.13043380621821 69.0
57.99524005968124 96.79803032451309 58.289918911643326 56.0
57.990143910981715 96.76541316893417 58.303874486126006 52.0
59.931389942765236 92.48237864568364 57.39774377271533 75.0
59.94162059109658 92.3468083429616 57.41648383345455 99.0
59.48780804593116 92.60148346261121 57.79613845702261 66.0
59.49174978770316 92.47733708901796 57.821944640018046 57.0
59.0897134328261 92.8899449018063 58.11431295983493 30.0
59.08281763456762 92.77475475904066 58.14528497401625 71.0
59.08419976104051 92.66354972089175 58.16945587191731 20.0
60.070400453172624 90.90060238842852 57.563316880725324 69.0
58.36688854265958 93.26770419848617 58.74732382502407 20.0
58.36665585078299 93.07238101249095 58.780406549572945 64.0
58.05815639812499 93.36012001265772 59.00710130576044 45.0
58.04769155010581 93.19996079208795 59.05592929571867 63.0
59.13376525230706 91.30784593475983 58.36412867810577 54.0
57.75660082604736 93.45867806114256 59.281750741414726 75.0
57.747754629701376 93.36603517946787 59.313601076602936 76.0
57.49522564187646 93.65835757763125 59.48927954304963 27.0
57.47411198820919 93.57676403073128 59.53005248121917 36.0
57.46641834639013 93.46616201475263 59.553135331720114 69.0
57.22650630958378 93.75066556362435 59.738453859463334 34.0
57.2186777824536 93.68905436201021 59.75829343684018 36.0
57.195758268237114 93.59999348386191 59.795762764289975 34.0
57.96677911654115 92.05521699029487 59.358147306367755 20.0
57.96916247345507 91.87305326375645 59.37251797597855 63.0
56.978379774838686 93.88730744202621 59.95175030454993 34.0
56.964753614738584 93.79847657936625 59.98270578775555 63.0
59.97062525246292 87.11790806055069 58.24250357504934 26.0
57.63302288018167 92.1340592628112 59.65858134441078 48.0
56.7444799086079 93.99114505830221 60.14422972127795 48.0
57.62966466229409 92.02351160324179 59.67488534189761 69.0
56.73457647114992 93.93782605661545 60.165201858617365 53.0
56.71835293248296 93.84216420026496 60.19696959387511 90.0
59.38822799921036 87.483506418881 58.7230523461476 31.0
56.51498240418732 94.07844748848584 60.345890999771655 26.0
56.48727900814265 93.93864658137318 60.398846320807934 50.0
56.31762663181871 94.20126624556724 60.50246454309672 50.0
57.029248079285026 92.41089651768561 60.18301331810653 24.0
56.28948652744293 94.13648706302047 60.54582864511758 50.0
57.00513071939349 92.27732870634645 60.22485847584903 40.0
56.270806109532714 94.0632737322012 60.58273420389742 77.0
56.25746310688555 94.0092843878083 60.60807642992586 48.0
56.11343992687762 94.32512548239902 60.68107599578798 26.0
56.75219730567187 92.63598250364885 60.421209583990276 25.0
56.741800809279084 92.54303750698455 60.44024838600308 38.0
56.07900117803365 94.19428968441207 60.7369650574401 45.0
56.71328187547624 92.40228708065115 60.48580075800419 50.0
55.90265853051096 94.40263534837868 60.87580328248441 21.0
55.880145265720785 94.32946562266443 60.91202944051474 43.0
56.45766239706427 92.58095156680793 60.6902190875262 48.0
55.858766132965684 94.26046992372721 60.94863120839 51.0
59.31064235046506 86.63904805213679 60.18690142035484 22.0
55.711223147809505 94.50526176218409 61.03438769746572 30.0
59.25816063582897 86.69681127020158 60.31605730112642 24.0
56.21316971164197 92.80763925507199 60.885040449909866 26.0
55.67285462561995 94.38789085112512 61.09374625608325 66.0
56.18859956972301 92.66291484097019 60.92102959845215 50.0
55.648217145353556 94.31984132085927 61.13522083684802 48.0
58.983711059205234 87.56911394163035 60.762935996986926 32.0
55.515825987793505 94.57865450857207 61.19756339304149 43.0
58.924689220264554 87.62955552455969 60.89238489139825 24.0
55.4927134513855 94.51801756233908 61.2356568062678 46.0
55.96570497471839 92.9546878762776 61.097867156378925 56.0
58.8735446035862 87.69785709655844 61.015391760505736 22.0
55.46579200960696 94.44240752095357 61.27332505583763 53.0
55.93687016237527 92.81861948990263 61.13923184107989 77.0
58.82921983581036 87.74218865472358 61.12939343228936 20.0
55.33895357046276 94.66119178128429 61.34936320595443 44.0
58.78308812901378 87.79091164388228 61.247223695740104 20.0
55.30192386638373 94.60337666037958 61.39947311300784 48.0
58.7298495285213 87.84141195146367 61.36619226075709 22.0
55.28375297598541 94.55398058518767 61.422428836114705 58.0
55.70675091445446 93.00857851246838 61.32858356740326 42.0
58.70122209377587 87.8650848387042 61.44249907974154 20.0
55.67505821399391 92.88302152242977 61.373920476064086 42.0
55.16339706350118 94.76454105845187 61.49382614064962 44.0
58.65768414828926 87.90719794412144 61.55685983877629 22.0
55.13721208553761 94.70804890454747 61.532820141874254 47.0
58.6167333740741 87.94744347198866 61.66548597160727 22.0
55.09117020480335 94.63661840045825 61.59667016286403 57.0
58.54892575647682 88.01645054749679 61.822867567650974 22.0
55.46499311551452 93.13381199806463 61.54448188841343 37.0
55.07317833881825 94.59595379640814 61.623128426261246 44.0
58.521585582755506 88.04511789849494 61.89507504273206 22.0
55.442388923838735 93.05034679721575 61.57379129715264 47.0
54.98400383628905 94.85528360377066 61.6446923147887 23.0
58.47903470881283 88.09611995262094 62.0042038988322 22.0
54.95680673420429 94.80017539043911 61.6845316067338 56.0
54.90683367755264 94.72165394248441 61.746194057166576 56.0
58.36294218339026 88.20394318609033 62.2976416060701 22.0
54.80278794746846 94.93855553294998 61.80661334935576 39.0
58.336028889752924 88.23585612280294 62.36772759258747 22.0
54.77548482362181 94.89291383395903 61.849811545573175 32.0
58.29754106514156 88.27579105552286 62.472398018464446 20.0
54.744119418784976 94.8306684633717 61.88881128281355 49.0
58.25765554793179 88.31782538315747 62.579261749982834 22.0
54.71457917522639 94.80119332438335 61.92654560320079 59.0
54.644267873838544 95.05866523797158 61.93650164548308 31.0
58.224179269745946 88.34292506007478 62.652535712346435 20.0
54.97629690822214 93.27416673570406 61.962070098146796 57.0
54.61600853409618 95.01283717888873 61.97869439423084 53.0
58.18596464116126 88.38291323452722 62.75749340839684 22.0
54.58735067676753 94.96376905962825 62.01824641227722 53.0
58.14998054038733 88.42412671796046 62.8553684623912 22.0
54.81510614603758 93.52578584523872 62.07847754843533 28.0
54.53976594284177 94.87622590584215 62.074157712981105 57.0
58.09952600020915 88.47754139616154 62.99370621703565 22.0
54.7499139662832 93.39211885549594 62.15536671411246 51.0
58.05344847589731 88.51757835107855 63.10348717030138 22.0
54.44170702621341 95.10852503031492 62.13090282678604 31.0
58.029128942638636 88.54288140346762 63.17010365612805 22.0
54.42033398617059 95.07431684085168 62.15840531140566 33.0
58.00626685563475 88.564515509177 63.235874846577644 22.0
54.38777029607445 95.0236969034886 62.20168106164783 34.0
54.58257825579494 93.61012582550757 62.28287354391068 44.0
54.55272618774325 93.54264122608583 62.31917724665254 44.0
57.94780428055674 88.62032247474417 63.40171439945698 20.0
54.33219876047224 94.95357152761426 62.265719225630164 38.0
54.269905369728804 95.18888811802026 62.26185255218297 49.0
54.497448173351586 93.44411155569833 62.38109965901822 30.0
57.9022566601634 88.67232167278416 63.50640708580613 22.0
54.23837997112423 95.14400472282432 62.30252060946077 65.0
57.867511303164065 88.70428939512931 63.606906353496015 20.0
57.845301385968924 88.73000359244179 63.66935167647898 22.0
54.360526053234935 93.70994759735186 62.46260166540742 33.0
54.18372250813991 95.06852330709808 62.37601139117032 76.0
57.80991489067674 88.76817114651203 63.770425483584404 22.0
54.1600547702983 95.03228670195676 62.403983558528125 65.0
54.09889056067914 95.28363531304058 62.40442594047636 35.0
57.7774650529027 88.79979564726818 63.84123538713902 24.0
54.08273375965655 95.26862748793792 62.43301647063345 41.0
57.75719673093408 88.81481987121515 63.9035370759666 26.0
54.04237712640315 95.20858277764637 62.47612128127366 59.0
54.12626446131617 93.80343684041873 62.678229180164635 36.0
53.98397935181856 95.1339535965817 62.55078339856118 75.0
53.97505641169846 95.12351799639873 62.56524168793112 68.0
53.91869612690061 95.36868746997789 62.55655175913125 33.0
54.06671846844256 93.71593433967791 62.74439456127584 46.0
53.902957670390606 95.35534237336833 62.584296996705234 39.0
55.50473583675921 89.18935862800572 63.67643356602639 21.0
53.868102320469916 95.31376298237592 62.628633487038314 41.0
55.478152736090124 89.22845126804896 63.77063442673534 21.0
53.93330058082938 93.95636357308831 62.82922242768109 24.0
53.833223287947476 95.27376017218921 62.673257247544825 42.0
53.887821052223444 93.88346149737481 62.886962197721004 41.0
53.82751825079322 93.80529867496807 62.954204838722944 49.0
57.48867178428918 89.10402491618879 64.64542845822871 22.0
53.72582301404327 95.44810623372905 62.73305816296488 31.0
55.131007983349264 89.34342358063441 63.97838200349361 20.0
53.68759254273027 95.40586905332748 62.77863780967891 48.0
55.105107329785824 89.38027742668055 64.07123484741896 25.0
53.66453071311116 95.3816095039947 62.807991028763354 48.0
53.65024613123387 95.36380417097826 62.82195233087987 51.0
53.703677794896066 90.17920006497297 63.63992594368756 23.0
53.62959246803075 95.34554814337753 62.853332962840796 60.0
53.65980240795761 94.00188535626512 63.09147379454225 30.0
53.589207767508924 95.3139594894601 62.89244328532368 51.0
53.56656343024224 95.56728116131853 62.86201280262321 30.0
55.03275867924094 89.4586771769682 64.29775153286755 22.0
53.59730323590338 93.9288286609808 63.160694285295904 31.0
55.01577653829008 89.48699139943346 64.35961656365544 32.0
53.48522226884961 95.48976165510248 62.965574969537556 26.0
54.89627246093005 88.92135098925792 64.60289523750544 100.0
53.47116352152079 95.47516272740904 62.980398084037006 34.0
55.19953573402017 89.446907240781 64.6672377884388 55.0
53.45746526867151 94.14191690646112 63.249594180844724 40.0
53.3535176422447 90.33390501409303 63.9483041241765 25.0
53.444183465093374 95.44776774721686 63.011552478186786 40.0
49.43355281371623 55.055691764340736 70.12657738756388 26.0
53.373918041586876 94.04657433764078 63.34101342782378 50.0
53.37824697420001 95.39617785392329 63.08312643133104 23.0
54.609399502165616 87.3569816100644 65.11359956488013 100.0
53.339210007339716 93.9994894907577 63.38121753092855 48.0
53.286804092116654 95.57995867030695 63.13380007818341 37.0
55.850999371148646 89.59996210818645 65.26314952131361 32.0
53.272814200259745 95.56774495565332 63.15076119732112 37.0
53.00421068817377 90.49272920086514 64.25037311855704 21.0
53.233859702944756 95.54987520072609 63.187639435753226 42.0
53.204243993386626 95.5227571465075 63.220970613881946 42.0
53.192625638097525 95.51416802080348 63.236257672309875 51.0
53.12405485007912 94.15125363878906 63.55422709695995 68.0
47.52885871846229 54.12475578812882 71.98592378944159 45.0
56.27990413364023 89.68987705826294 65.63072577305138 20.0
47.413861226290464 53.747367859235965 72.19266621395946 46.0
53.08284030389041 94.09815713088028 63.59783461783081 34.0
56.26173562556505 89.64443446835503 65.70557971484959 77.0
57.035362577065825 89.6600160037633 65.93007926642895 25.0
53.1323905820027 95.71114641567692 63.23489382863045 42.0
51.86544298287481 80.091856979765 67.00788522791117 48.0
46.14951583836228 40.64750029146671 75.74699920136482 49.0
53.10802883282304 95.69374890020117 63.2658823300153 45.0
57.00845412258059 89.67137431760784 66.02805918175727 21.0
53.07383696176112 95.68234153452795 63.305666310712695 47.0
52.642543736845255 90.6744436013978 64.54923255275935 52.0
45.54161716531962 38.47349109838251 76.93190523888916 51.0
56.69501572288573 89.71306538931094 66.11331991665065 22.0
53.002024366520345 95.62407223880291 63.3843451552093 68.0
52.97551636118442 95.6038846388692 63.4158033374697 76.0
52.97394978348166 95.85815181280486 63.37336715310812 35.0
45.52948780357838 53.41729096544441 74.04106868524104 22.0
52.96397589053959 95.85383617063053 63.38796907663345 27.0
52.94595099799335 95.83688306994736 63.40310171432793 46.0
52.926681550219655 95.8394523585448 63.427217290736735 48.0
52.90872551128268 95.82488447031938 63.44448793772608 50.0
43.25063869263977 38.351166010135785 78.9653027318418 37.0
52.87930809892714 95.80254864878953 63.47576944436878 53.0
52.71298258099705 94.48699277127162 63.89254956506193 31.0
52.83136207796633 95.77502052276395 63.53677403833717 50.0
52.67576669994742 94.4520687237382 63.935808778740466 42.0
44.37386001087725 55.64766077767126 74.84577832464129 22.0
52.62508941907436 94.39633739285637 63.985283771529794 66.0
52.768235296942294 95.7271406124346 63.602342607453465 56.0
52.72599022462964 95.7102107394021 63.64565712120384 40.0
42.966894555836916 56.62892683362588 75.89364660903811 26.0
52.44300000462681 94.60040045005735 64.1270391177386 24.0
52.614715760573745 95.88063930021599 63.705552097409964 45.0
42.587494305334985 55.72249255015049 76.44850586354733 28.0
52.340512447059155 94.51875968440436 64.23072905931622 28.0
52.55666421353817 95.86616302723996 63.77806471474469 35.0
52.52164528146386 95.84115430922247 63.811130875721574 30.0
36.00253475829959 23.617989362217486 88.93198861274868 63.0
51.53494599740952 91.19937067234423 65.51476984936744 58.0
45.86107491329312 70.34212612558622 72.89590825978667 37.0
49.04247406311333 81.44623417640105 69.41847959347069 130.0
37.0305125778541 42.12603180122096 84.3081829464063 33.0
52.023570351302624 94.62380583805498 64.508643691428 67.0
51.197668079286814 91.45620132400654 65.79725846741349 28.0
51.11337547749281 91.35359821165912 65.88808659277856 26.0
42.475986160337925 65.18630367866717 76.07943685539067 24.0
43.088907619938254 64.59026658348739 76.80948847625405 46.0
48.379444528371096 81.9052194399992 69.94280613865703 20.0
42.9246342908591 64.65786669356748 77.26341750193387 23.0
51.83854784537107 94.85654932376929 64.65149280615151 48.0
31.65750813204795 29.899194556172006 92.32115856092423 45.0
41.51050416752696 61.261007459135726 79.014678013511 23.0
51.73357860464603 94.79418982984498 64.75647545140237 48.0
41.38251709938049 61.235273941536434 79.30324366502464 46.0
51.70609867479652 94.77460341458209 64.7838730616495 45.0
41.424881629645824 61.50205428793561 79.33812878187746 46.0
38.29440181143582 59.47127105668187 79.9638240672648 45.0
35.16803950071335 31.53756791143678 94.3622954916209 61.0
38.025240099057555 59.00533516751602 80.31159248482436 46.0
31.445161109790206 31.447688458953053 93.59858510736376 44.0
35.10756037943065 31.615909063839354 94.55929347220808 61.0
37.76895152963698 55.79301760357339 82.14446966536343 20.0
31.219313699752092 31.103251230204478 94.01422070804983 44.0
37.491224993020296 58.0774655865971 80.99950512126088 24.0
39.83184837549925 58.35889863211196 81.66587468329817 23.0
38.434547474607825 55.238869784167036 83.51439763046801 23.0
51.59613281209022 95.07336377201136 64.85605388320982 25.0
33.580488005653024 34.588985475478694 94.57206447795033 57.0
35.86095839180052 49.26088535296731 86.77625389769673 23.0
32.95444110967219 33.036012833355926 95.56248734984547 61.0
51.499883531592786 95.01507552992553 64.95310286059976 21.0
32.75995810329914 33.0202484697802 96.06839275360107 61.0
48.78632082976401 88.78285418823361 68.47018558625132 41.0
51.22667953837663 95.2148210137384 65.16783035360277 24.0
46.18661715090275 81.94668100751005 73.48009908664972 24.0
48.38363930396736 82.35035197017714 75.63845002837479 20.0
38.29289975576103 74.20526685379446 79.63491411786526 36.0
38.215954705141485 74.27644580928609 79.81701281759888 49.0
44.04474059306085 83.84727467200719 73.74776172824204 45.0
29.293787924572825 58.216830915538594 92.28409168776125 53.0
29.275865972973406 58.33904218755197 92.38430804293603 53.0
26.2483180584386 57.35688200034201 94.49056016281247 62.0
42.93634934723377 84.28666231862735 74.73394297249615 20.0
29.285638893023133 64.29172883473802 89.98653795011342 24.0
28.37430538609624 64.60982219164725 91.72663809265941 24.0
31.875721118412912 70.71013432182372 86.74849271588027 22.0
35.041574844159186 75.87540714233182 82.55405764654279 51.0
28.242277353070676 65.02919459622353 92.16128302086145 24.0
41.82194630242884 84.87271931825671 75.68069412466139 47.0
22.26832686830312 57.70545614825096 98.5734578659758 31.0
31.298169512301683 70.72011776512954 87.692466750741 46.0
27.786357353441417 69.75425384042319 90.56369533669204 32.0
19.42317794729024 63.2187517946586 99.98881555814296 59.0
28.794177777133882 74.09890366287436 89.14863560255617 39.0
18.423404566012323 62.56536618235987 101.10569465532899 58.0
31.337949573993683 77.8194869965082 85.5658751418814 33.0
39.22373826429248 86.28433311416302 77.86385015025735 27.0
38.52126506343484 86.02962800941896 78.64499277062714 20.0
11.440397157333791 58.24371106782928 109.43488286994398 47.0
27.28870586398989 76.37729857908562 90.351213414222 37.0
28.482101247645915 78.63774950022344 88.04177967086434 68.0
21.214151213876903 72.20973599073477 96.54339768178761 28.0
21.053163919597864 75.36839567334391 95.94327449891716 25.0
21.218367902562022 75.89866473968141 95.95814522914588 24.0
18.12359016481787 74.26538237161003 99.10729179903865 39.0
24.850476387888193 79.93412958877161 91.31973172724247 33.0
25.390549114905298 80.41886928142048 90.88112629391253 31.0
25.325296137481928 80.47730532777496 90.98150448966771 31.0
35.10198285896331 88.1769616396632 81.44827785622329 33.0
34.84020259138197 88.16705346631352 81.73541648313403 60.0
40.721256093122065 92.61791697749868 75.39356722682714 31.0
18.83110278751701 78.3941718157148 97.72557434532791 82.0
34.00629994366318 88.13339872343931 82.64430122077465 21.0
32.049787973985076 89.59654400800355 84.07242440618575 31.0
31.772626099176705 89.64056067611091 84.37060120142996 57.0
27.553181614726782 91.03899564570747 90.35261266492307 31.0
28.951627829112113 91.267270814511 91.70890948269516 100.0
25.804750204086304 92.02010871004313 89.59136975370347 22.0
25.68395082745701 92.09380856633652 89.72155474592 22.0
30.289840748533607 91.52175536181312 93.1195811163634 41.0
30.96388171147555 91.58671183255501 93.8248066464439 59.0
24.640592528507113 92.30473485577386 90.74768034182489 22.0
31.794119648635387 92.16279122710694 94.40900258719921 27.0
33.07724018674344 93.9948426237097 94.52269081026316 31.0
58.04519238881767 96.86389822768979 58.24969752971083 23.0
58.04571315366775 96.78810224414337 58.26241568941623 47.0
58.02399533987045 93.2902143864194 59.070508966222405 99.0
58.029985575936735 93.1640954867471 59.09640348050743 23.0
57.57566138263792 93.62422623927705 59.43623516522348 25.0
57.57484630215913 93.49994343414437 59.45879303384572 89.0
57.58185609057546 93.36927965749055 59.47843367699534 44.0
57.184790559113026 93.70142433966976 59.78391216043383 63.0
57.172639469616115 93.60181257908698 59.82381754182279 56.0
58.14925350341946 91.80932686664164 59.23408189881593 57.0
56.46433910354972 94.0756928413175 60.412248907610774 42.0
56.46247424092144 94.00417554844171 60.42978457827121 73.0
57.65463976748288 92.05367821326945 59.66141526773572 61.0
56.458208658732474 93.94009635492694 60.45114884059876 38.0
56.153420126996934 94.17954129585996 60.67686031758785 67.0
56.14782185573131 94.11994596279692 60.6993571408093 75.0
57.21131344605237 92.29300366831012 60.03268859256059 41.0
57.22174644190818 92.11952416738495 60.05213604308665 20.0
55.85801412817091 94.38444727798924 60.92762029543519 79.0
55.85082918871194 94.28343161079101 60.95470840204507 76.0
55.60017312690616 94.57849063898902 61.12962984479964 24.0
55.58925203140825 94.49413998285308 61.162612731568515 40.0
55.57022677268833 94.39397911459673 61.19704344961792 64.0
55.325183695182204 94.60790984542109 61.39837289042771 42.0
55.3136856071651 94.51395956450142 61.42727869190276 61.0
56.05805639363825 92.84223782271147 61.028652369976044 46.0
55.08405357040465 94.80441940505989 61.58904532156885 34.0
56.056030818261206 92.68530462670606 61.053122005425394 39.0
55.070979616604745 94.72202097193804 61.62023276556283 67.0
55.05705022998154 94.62601565464865 61.649464616551995 63.0
55.73967048432678 93.08377633639611 61.29531271196902 32.0
54.85137063730508 94.90691288013477 61.78089482244104 41.0
55.72275115456432 92.9286840489367 61.332213224843144 69.0
54.8362041413784 94.82726901944261 61.81370103172958 50.0
54.82104948349297 94.74683686892968 61.84636360500008 53.0
54.63984505459666 95.00720498582814 61.95860059559345 29.0
54.61345873493701 94.93486163381021 61.99905320443213 44.0
54.60116063430905 94.8818665422732 62.024052856490016 61.0
54.41486383602023 95.06771655823104 62.16274236422032 56.0
55.12214063666761 93.27096674079075 61.84721393696964 38.0
54.39726963173598 94.99945852824021 62.198531868867576 66.0
54.367636253125966 94.92490115319379 62.241647464223206 77.0
54.21090452186763 95.18529521673918 62.33714955486357 37.0
54.847171222791076 93.46641547651961 62.075278100557625 66.0
54.19065373484045 95.1141476436751 62.37446948699653 42.0
54.82980301231146 93.32941947958898 62.11050454247743 70.0
54.170414234511554 95.03983987937681 62.40957959275693 68.0
54.00024835485965 95.26599178207107 62.534230230376124 40.0
54.578729974105954 93.60146984283347 62.301226501353085 41.0
53.98546717874706 95.21172216103878 62.55486552603543 32.0
54.55829841736704 93.47257340326905 62.338143524713814 48.0
53.96311200130731 95.14411744859535 62.59394785668701 47.0
53.95496266055852 95.11169587611221 62.603251797147095 43.0
53.83438094239682 95.40285325120203 62.65519086550921 34.0
57.36159547418356 87.55656696588267 61.923785352148116 26.0
53.801011400297284 95.34496087837033 62.7042012354359 48.0
53.78577415738255 95.29850835318211 62.729112546890974 57.0
57.13466427382082 88.38357893645298 62.25491647049785 22.0
54.29804280772805 93.59736411075573 62.555981568060815 50.0
56.88661839440465 87.74070718581788 62.215361930429935 21.0
53.63969095889479 95.47717432724312 62.82086359150708 36.0
56.85621678549796 87.7711496691918 62.2960000494495 20.0
53.62331353034824 95.43366197939031 62.84520036075264 50.0
57.009902513585985 88.52370827121194 62.54754763003439 22.0
56.99346429947764 88.53947894880548 62.58991636149585 22.0
53.58811500295997 95.37225075915921 62.89326058141887 50.0
54.057545005343854 93.78688149596564 62.75709549430758 50.0
53.57127461023629 95.32548579224385 62.918083555065095 57.0
54.03973456658423 93.70514117693529 62.78361478820443 60.0
53.47038974426687 95.6070417665178 62.95613313186914 25.0
56.91996286995709 88.61211989622097 62.78058391623199 24.0
53.443655867129564 95.5417460668832 62.996027709916234 55.0
56.099969861097634 87.68543006526306 62.49057017453015 26.0
56.07220822479576 87.38038300315384 62.6194624081254 100.0
56.808012397028506 88.71600673510693 63.055077568627894 26.0
53.3807515501976 95.41564032784663 63.07992194220424 58.0
53.798926861956716 93.8503246671753 62.99003816116601 45.0
56.059606881812215 87.25617505493574 62.684405509382486 105.0
53.286544472910464 95.6826857913984 63.11068994645029 27.0
56.537308948114514 88.24818493088242 63.062271900475025 124.0
53.26320693921298 95.63702636654489 63.151512414216995 47.0
56.53445644676685 88.10136839409824 63.124640355817974 127.0
56.03474612440914 86.87105239985976 62.845153104513884 26.0
53.24274190701544 95.58797378558666 63.17700400110334 51.0
56.7840918218717 88.37059709453024 63.27733043767512 38.0
56.52632287982851 87.9108303389512 63.219350379891694 27.0
53.599882065318525 94.08428842271678 63.15087040886283 26.0
56.524376100860536 87.83692532742862 63.25230526737869 20.0
55.984088426455855 86.76235493295826 63.007186979055405 22.0
53.196393486112356 95.51173995900899 63.23799781501293 57.0
56.771157707087696 88.10322603734676 63.41270783543587 28.0
53.56844035163522 94.0228187997127 63.19314070418477 37.0
53.108790398575366 95.77374770399183 63.26327968481928 20.0
53.17808490153402 95.47417602699716 63.26794209238142 26.0
56.768515069037676 87.9611939835595 63.48262287862599 28.0
53.54550595022738 93.93612687126733 63.219881183467805 40.0
53.08376957383007 95.72855081502348 63.30408563185483 46.0
56.767403235659 87.7522594515467 63.57921668328345 26.0
56.49443825148046 87.26265084987972 63.535093060694635 55.0
56.49327249079943 87.18020148086362 63.56874960381538 56.0
56.20576908905059 86.7320330174407 63.48134081624448 110.0
53.023987002670765 95.60147229186259 63.382963409647346 59.0
56.48849289678037 87.02589400566649 63.64046582207084 23.0
56.61868285946548 77.83131885086186 62.896345374174416 42.0
56.76386683434248 87.29855765553657 63.791155118495226 26.0
52.99504961632192 95.57290524372365 63.421487712301314 49.0
56.473670535720885 86.86488569655921 63.72464595735073 23.0
56.472540844231844 86.78244336030912 63.759937786497176 23.0
53.307119009085 94.04620521981269 63.429812816902995 30.0
52.912029303610325 95.83106254332233 63.453846484422684 34.0
56.74981570523232 87.07208001799881 63.91430630534887 28.0
56.46803852915764 86.61474976863246 63.83568152785301 21.0
52.890150882303715 95.78489689424168 63.47847625799477 37.0
57.019087015651166 87.2945372601971 64.10001667682081 22.0
58.83488449919969 48.49015655706171 62.09305113554001 26.0
56.74476023670286 86.76513339066878 64.06901984848082 24.0
57.02194920089096 87.06186869763769 64.21352135576308 23.0
53.90601639263332 90.00438237225171 63.4973023487255 22.0
58.84409990720451 47.2728541798424 62.33009225130081 25.0
56.74543858598918 86.5897528808564 64.14529935643077 24.0
61.84912689123303 42.33142525050789 63.127203919924796 62.0
61.846914852038026 41.999734592740424 63.25915052276105 63.0
53.11771588027477 94.22907798748929 63.56476776488125 46.0
61.822250937111676 41.7680271230638 63.424830520525575 63.0
57.02665604930371 86.7386408939492 64.37171518988907 22.0
52.740776212885976 95.92101964633912 63.59363546781242 49.0
61.76704248879105 41.712204101262614 63.602277820929885 63.0
53.078647556714714 94.14951944083441 63.60692241508514 50.0
53.06789699010551 94.12686868698802 63.62510443292558 43.0
52.72367254924029 95.89634010987356 63.6225520381704 49.0
61.68329507112503 41.56780684541445 63.92980280611664 63.0
52.93091867212206 94.43696714565158 63.70889884233475 20.0
52.65923311840743 95.78337535529863 63.7058882387355 63.0
52.647940835915506 95.76220021466725 63.71902076713741 60.0
61.52827701345086 39.772197075071745 65.11946252547204 61.0
60.15882375277579 39.00328945717774 64.87105434201658 31.0
52.87617986090481 94.2990126865916 63.776362660340965 55.0
60.11033651512116 38.9464045392815 65.04871133156121 31.0
56.92697281204164 46.07464933209121 64.40202028490603 40.0
61.41216291580349 39.29260457144119 65.66270486265421 61.0
52.54780664667487 95.98697939212434 63.775373733602464 28.0
60.03523855376989 38.462155933259055 65.42013674043119 32.0
58.45255351345986 36.812082607648335 65.89192384295166 32.0
53.186778508126736 90.39232752926182 64.11359476484358 51.0
52.68512563966215 94.48630722309463 63.93128358013928 47.0
55.256066403351724 50.8649594852468 65.17414778470993 28.0
52.67196690291166 94.45765294961166 63.947438184171915 47.0
52.461213677190244 95.8507227076916 63.887576940469444 63.0
52.656053805723786 94.4213464903878 63.96568123437464 47.0
52.45275699812919 95.84116857673507 63.902681584469974 33.0
56.700696382671595 36.08803314063698 66.56044141110033 59.0
52.34388905297965 96.02313450735528 63.948124007321894 75.0
52.48286640178412 94.63267867604736 64.09233193844557 25.0
52.85629447456449 90.64732004678808 64.38982386607677 29.0
52.28896966390312 95.94443965877872 64.01911766920239 81.0
57.82555268611759 34.110973456990905 68.57633264828473 37.0
52.26800422929227 95.917426293483 64.05005086772144 70.0
57.755504278466105 34.37798348674551 68.75136406719685 37.0
52.25189671386033 95.88898791349493 64.06326094828546 20.0
52.17406531609595 96.1252291231649 64.09335459209979 63.0
53.326022047549486 48.68627014267258 67.38285392988473 38.0
54.47138371039182 36.0006557990564 68.6807772135362 28.0
54.35808692127466 35.35321672272403 69.10109190549701 29.0
55.85204820986837 31.474766551167704 70.05329092405736 55.0
52.114974876865745 96.04414016765077 64.16444232407957 59.0
52.103769077919424 96.03088785987347 64.17922665644437 59.0
52.232973363250494 94.6914974343963 64.32521350029856 38.0
52.21736349724233 94.6623654528521 64.34518017061055 28.0
52.20174977649003 94.63323272031266 64.36194809060544 40.0
55.53004052489996 30.1367862658808 71.33824631478637 53.0
51.70081895776093 51.249681496061385 68.73603352531791 30.0
55.29678213596344 29.085694047273137 72.25699249841273 53.0
51.95105120912194 96.16714960290119 64.30380542762578 48.0
53.53756372630596 28.07401861937251 72.29740564804524 37.0
51.93248871061951 96.138232761994 64.31762882415205 75.0
53.470544543117285 27.464060138328932 72.56274760980159 37.0
53.3365070708096 26.709012266248465 73.0638057179749 38.0
51.867106260731816 96.35160105291288 64.33984409831464 23.0
51.85272115189582 96.3337761281291 64.35529704298824 30.0
51.81834171526134 96.31205443199724 64.39285466820002 46.0
50.102156727574766 51.385604909504764 69.9467526813969 20.0
50.37489303853363 39.7102955627488 71.97059736493975 31.0
50.986687099561095 23.5820436605718 74.68563629500568 43.0
51.769709904678166 96.25988411868457 64.45309151429683 54.0
52.693260507658124 23.848996749380603 75.39849516842514 42.0
51.75532479584217 96.2420591947157 64.46854445990175 51.0
52.62849774211645 23.911482282797806 75.61517769470811 42.0
50.020876119844615 37.78420046507381 72.955271884799 33.0
51.805146377533674 91.07730875280686 65.29476596880704 39.0
51.93414882104844 79.67120956815779 67.15097871422768 21.0
