X Y Z Intensity
108.03743420611136 101.03045867290348 225.323 56.0
106.10712012462318 100.513313642703 225.3304 52.0
107.9671867408324 101.07647700142115 225.3254 66.0
107.91439907730091 101.10737497359514 225.3252 45.0
108.19549947162159 101.25460525974631 225.3207 37.0
106.46814674616326 100.81377450563014 225.3458 45.0
108.15785729594063 101.30034118983895 225.3231 42.0
106.36948307766579 100.8479525865987 225.3391 70.0
108.11515299906023 101.33149563986808 225.326 42.0
108.32163465686608 101.51351559814066 225.323 47.0
108.2866585352458 101.54597836919129 225.3277 35.0
106.55198297719471 101.17944841086864 225.3364 51.0
108.24275469221175 101.59377852082253 225.3274 51.0
106.4679435014259 101.21844545844942 225.3339 57.0
108.19611565873493 101.62705638166517 225.328 47.0
108.48644199222326 101.71671048179269 225.3154 25.0
108.35313829989173 101.83116499707103 225.3248 61.0
108.32164475345053 101.87928081676364 225.3292 61.0
108.28706427721772 101.89618918579072 225.3242 31.0
102.23315510025714 100.82723599113524 225.2502 43.0
108.56245554913767 101.9932456323877 225.3168 43.0
108.51894735079259 102.02549137920141 225.3151 53.0
106.93973372818436 101.77186692506075 225.3396 40.0
108.45395983487833 102.07831398118287 225.3158 50.0
108.43647177517414 102.09454536624253 225.3176 50.0
106.74429381114896 101.88807622622699 225.3282 54.0
108.69862057710998 102.19348847679794 225.306 55.0
108.65155764040537 102.24343176651746 225.3119 58.0
108.61026333249174 102.28018081560731 225.3125 70.0
107.08852915698662 102.08582925144583 225.3442 32.0
108.54990141815506 102.33423281926662 225.3138 66.0
106.95727284369059 102.15030722972006 225.3315 82.0
108.8395242372062 102.39051661267877 225.3118 24.0
108.7761006228393 102.47339617554098 225.3147 44.0
102.71848789986689 101.88573496323079 225.2529 34.0
108.69351200840902 102.54689427372068 225.3134 57.0
107.15575333544984 102.43329266272485 225.3386 40.0
108.9526586420834 102.6112968577072 225.3082 29.0
107.11086342146154 102.45883278828114 225.3347 43.0
108.84785594011191 102.73425855394453 225.3087 59.0
102.96273526642472 102.38333987351507 225.2571 23.0
107.36203414143529 102.6842358307913 225.3403 26.0
107.33659183222335 102.70804712828249 225.3426 30.0
108.75389963481575 102.82747895549983 225.3084 24.0
108.98330181860365 102.93225961737335 225.3153 32.0
108.954826064175 102.98378744069487 225.316 37.0
108.93495455477387 103.00218169391155 225.3148 37.0
107.49122800014447 102.97546463180333 225.3352 30.0
109.17191837565042 103.05379081517458 225.3051 36.0
107.45725361513905 102.9990589087829 225.3328 46.0
109.16609322652221 103.06920711137354 225.3107 46.0
107.3598430204438 103.07551525346935 225.3294 46.0
109.12902887398377 103.12273996695876 225.3167 49.0
107.5658568344079 103.30644018482417 225.3286 48.0
107.52941422024742 103.33553041424602 225.3261 58.0
109.23237510654144 103.36217095144093 225.3185 30.0
109.39602975884918 103.48862595763057 225.3028 24.0
109.36786486802157 103.52793246135116 225.3042 65.0
107.68936682445928 103.60753014311194 225.3282 47.0
109.33307092497125 103.58374656084925 225.3092 61.0
109.29631743836217 103.62505809776485 225.3049 75.0
107.92440591100603 103.79583521652967 225.3285 34.0
107.90045836986974 103.82190802879632 225.329 52.0
109.50353679503314 103.71704530809075 225.3036 26.0
107.83774128637742 103.87701188120991 225.3227 56.0
109.4824374752352 103.7531962916255 225.3071 37.0
109.42490814486519 103.84845499880612 225.3132 40.0
109.38646207028069 103.89528222102672 225.3084 78.0
109.36732229520567 103.94593576528132 225.3091 73.0
109.6205493650632 103.93792421277612 225.3038 28.0
109.59551530808676 103.97619860433042 225.3046 37.0
109.57510684989393 104.01570240221918 225.3077 35.0
109.54180767247453 104.07377801928669 225.3105 39.0
109.53359907271806 104.09135718271136 225.313 42.0
108.17813965072855 104.37817447353154 225.3255 72.0
109.48764787090477 104.18913389183581 225.3133 50.0
109.46841070405208 104.21310301590711 225.3102 43.0
108.12697243632283 104.436907351017 225.323 69.0
109.45779039373156 104.23395607899874 225.3123 22.0
108.09665018983651 104.4694884987548 225.3207 69.0
108.07264612964354 104.49778336565942 225.3194 66.0
109.64388214750215 104.3632053071633 225.3126 54.0
109.80536374554504 104.51406349707395 225.3175 34.0
108.51578712381888 104.8959433324635 225.3346 30.0
109.75965123483911 104.63296948093921 225.3192 40.0
108.46292732213624 104.96019188966602 225.328 40.0
108.42181520874146 105.02029227465391 225.3274 42.0
109.95955368119758 104.67696544434875 225.3113 40.0
108.35669903689995 105.10868752654642 225.324 38.0
109.9370852462016 104.7364283008501 225.3158 37.0
108.62431808409747 105.23667521961033 225.3304 38.0
109.8876766897738 104.87858696747571 225.3196 40.0
108.55509761325084 105.33386005368084 225.3239 40.0
109.85573097574525 104.94447924289852 225.3184 67.0
109.84502588352188 104.96866539120674 225.3183 57.0
110.07477318984456 104.93782166577876 225.3066 35.0
110.06677502044477 104.97764113545418 225.3033 39.0
110.05051172967069 105.03726182691753 225.3102 45.0
110.03828361118212 105.06029748823494 225.3084 42.0
108.77867152309045 105.51520304940641 225.3228 36.0
110.0173382019857 105.12091083265841 225.3119 47.0
109.99822668521665 105.17045334726572 225.3124 64.0
108.95024300680961 105.81862729135901 225.3337 33.0
108.93075150297955 105.85259567759931 225.3318 31.0
110.16860466566868 105.36823124159127 225.3186 53.0
108.89805842086207 105.91735719889402 225.3312 35.0
108.842262577964 106.0360067030415 225.3235 60.0
108.82753797480837 106.0656493511051 225.3237 27.0
110.34227042645216 105.52829335257411 225.3099 47.0
110.3335248734802 105.56698206346482 225.3126 42.0
109.10253340285271 106.17826022952795 225.3299 30.0
110.32501801126637 105.62680005189031 225.3123 47.0
109.090163987712 106.20685103535652 225.3297 26.0
110.31738722929731 105.65217614546418 225.3125 42.0
109.04409976443276 106.30907186307013 225.3284 28.0
109.02374783728737 106.34635360352695 225.325 28.0
110.29415575589519 105.74163677822798 225.3149 47.0
110.28494542767294 105.7680844431743 225.314 47.0
109.29693761956878 106.46892429236323 225.333 30.0
109.27521657862235 106.5295179085806 225.3338 32.0
109.19451234024018 106.7120151957497 225.3247 40.0
109.43394772941247 106.97158401086926 225.3245 41.0
106.39469811692834 109.16335423104465 225.2384 31.0
103.57588470051996 111.72093894612044 225.1572 49.0
103.52386980224401 111.81300272233784 225.1593 30.0
109.64940121164545 107.3806287534535 225.3375 25.0
106.66858582210261 109.71618888247758 225.24 35.0
109.60072440828662 107.55504671670496 225.327 43.0
106.93614925560541 110.39560191426426 225.242 21.0
109.82477905449923 107.99210393894464 225.3198 22.0
104.33351782464888 113.18103459849954 225.1573 41.0
107.31497766915709 110.88106577191502 225.2475 31.0
107.63138473464642 111.71514240000397 225.2442 30.0
126.96021748997737 106.08109218161553 224.8714 20.0
126.81644732761197 105.96626001317054 224.868 50.0
126.45968012185767 105.68147072289139 224.8666 20.0
126.4224688152317 105.03904563561082 224.8799 50.0
126.10574913967866 104.82753874920309 224.8818 40.0
126.07169310259633 104.79331996198744 224.8758 33.0
126.01885262143333 104.21609040908515 224.8833 61.0
125.67811621190049 104.00286083761603 224.8758 22.0
125.7244385718368 103.55489313229918 224.8956 30.0
126.00029776361771 103.32844367437065 224.9904 23.0
125.49427675199695 103.41896357573569 224.8841 51.0
125.97899117181078 103.28120824787766 224.9668 23.0
125.95022331108339 103.25268272962421 224.9574 23.0
125.36034802522045 103.34440471790731 224.8797 34.0
125.9259554623859 103.1998132346198 224.9318 23.0
125.20250976935495 102.83676775544882 224.893 20.0
125.07927045424003 102.76915132068098 224.8835 20.0
125.09546826651786 102.34598747827113 224.8905 68.0
124.88066882267594 101.85024247411638 224.8937 47.0
124.83105590136256 101.84786863438785 224.8952 50.0
124.77953999768943 101.82877016812563 224.8935 47.0
124.58956705150194 101.76056786905974 224.8876 37.0
124.65582677605562 101.38314745109528 224.8937 61.0
124.5572509788908 101.35284611396492 224.8904 51.0
124.50478984753136 101.34039408992976 224.8912 46.0
124.39452286902815 101.31201884150505 224.8914 64.0
124.31383424275555 100.91418402921408 224.8944 56.0
124.2675782564329 100.90188985876739 224.8931 47.0
124.25607575743925 100.53027350269258 224.9029 22.0
124.07203782477882 100.50335686840117 224.8965 39.0
123.97317937994376 100.48416582774371 224.8941 48.0
123.75661174487323 100.08843318838626 224.8983 27.0
123.78228358516935 99.71998599544168 224.8959 34.0
124.0960395373404 99.4378013536334 224.9636 21.0
123.58563748560846 99.70053087547421 224.8926 22.0
123.63992334785871 99.3361468249932 224.8935 49.0
123.35513979336247 98.96758433058858 224.9 23.0
123.23108407133259 98.59644003678113 224.8988 49.0
123.18210545321926 98.5996410837397 224.8992 54.0
123.04602861392777 98.60952046979219 224.892 28.0
122.89839911845047 97.85311178956181 224.8947 33.0
122.8540743587073 97.85643122717738 224.8932 27.0
122.59897554689087 97.51085886266083 224.888 25.0
122.52546537527815 97.105424458161 224.8888 29.0
122.48149231320713 97.12542906124145 224.886 34.0
122.43469930277206 97.13424445223063 224.8858 39.0
122.74028442660347 96.68508972972631 224.9242 20.0
122.3420867654495 97.14411776699126 224.8793 39.0
130.12397008715197 89.32415590435266 222.5734 21.0
122.23819768649992 96.7734865071252 224.8906 24.0
121.61281837243587 95.63693623896688 224.8972 32.0
121.51181200053543 95.15298005845398 224.8889 41.0
121.46907932939939 95.18524544686079 224.8883 41.0
121.28282113408204 94.7269143126905 224.8878 32.0
121.14998495671898 94.79246356524527 224.8767 21.0
121.00296114583034 94.31734252721071 224.8832 45.0
120.82017602038104 93.78350091725588 224.8749 39.0
120.59922726149671 93.28537617903203 224.8843 24.0
119.62635521474294 91.65192939620465 224.8794 42.0
116.57416116283275 101.64449924882501 225.11 28.0
116.5446301860502 101.64597155153751 225.1109 36.0
116.51587485265918 101.64746358338743 225.1119 42.0
116.5209996944759 101.5375309260562 225.0963 46.0
116.48479258886073 101.64889642596245 225.1143 40.0
116.49409084173385 101.5579696400091 225.1051 46.0
116.46503409859724 101.66284654010087 225.1129 42.0
116.4629520541057 101.56162454001606 225.1093 49.0
116.47744114068337 101.4497065898031 225.0925 58.0
116.44347618101165 101.5644643669948 225.1118 49.0
116.41927113174461 101.6616824483499 225.1091 42.0
116.44630235247314 101.45336148981005 225.0964 63.0
116.41311303689145 101.56813899707049 225.1145 46.0
116.3896836314816 101.66537680942565 225.1122 45.0
116.4167996365577 101.45372276287526 225.0942 76.0
116.38676941895392 101.56635713763535 225.1098 51.0
116.36676604440436 101.6814700588584 225.1157 45.0
116.41590147581883 101.36698359809816 225.0988 32.0
116.3947142153047 101.4676136886701 225.0924 75.0
116.36144011560827 101.58572428207844 225.116 49.0
116.33875809318852 101.68409285414964 225.1179 42.0
116.3806583757978 101.37942807655782 225.112 34.0
116.36274326057173 101.47347091510892 225.0966 81.0
116.33429259248078 101.5850337203592 225.113 51.0
116.37403551489115 101.2736435784027 225.1107 47.0
116.31316185742617 101.68344175163656 225.1138 45.0
116.35112739773467 101.38090038113296 225.1116 36.0
116.3331557593774 101.477165277116 225.0997 81.0
116.30708854598925 101.58656521420926 225.112 49.0
116.34447627468035 101.27622691169381 225.1102 59.0
116.29000559903216 101.67840572632849 225.1032 27.0
116.31993208592758 101.38677733857185 225.1143 36.0
116.30520433059428 101.47756601218134 225.0966 89.0
116.33805124473292 101.1626652115956 225.1042 44.0
116.27669714041986 101.59135087393224 225.1153 51.0
116.31015012634452 101.28313597664237 225.1153 52.0
116.29704275960103 101.40175956115127 225.1143 32.0
116.28145457606297 101.49586159083992 225.0999 86.0
116.3120028199628 101.17979057040066 225.1048 70.0
116.25860298448242 101.60089633520693 225.1083 46.0
116.28476429893635 101.30472518224269 225.1228 55.0
116.26581918622833 101.40874754916877 225.1188 44.0
116.25430705246981 101.49517102818936 225.0956 83.0
116.28163967409637 101.18346520047635 225.1041 83.0
116.24803590821102 101.40607169270515 225.112 54.0
116.28139152971562 101.07117237430066 225.1035 48.0
116.23483117925934 101.4980108551681 225.097 86.0
116.26141641801223 101.1851742696017 225.1032 83.0
116.23257008753717 101.31229147780687 225.1248 47.0
116.2193088355707 101.40645269770175 225.1091 54.0
116.24947709625121 101.07480754517019 225.1026 52.0
116.207655394217 101.49843132123351 225.0928 56.0
116.2286698181415 101.1910117669031 225.1057 83.0
116.20545082492754 101.31048988644034 225.1172 59.0
116.2385112491902 100.95668334886432 225.0999 27.0
116.1904687162023 101.41127781756222 225.1111 62.0
116.21836656797677 101.07735141646117 225.1004 60.0
116.20250834710896 101.21258124057204 225.1099 83.0
116.18006499786861 101.33207909110934 225.1235 55.0
116.2132949908264 100.97160637937486 225.0959 63.0
116.16924372408539 101.4218553872779 225.102 45.0
116.1898781657219 101.09886169992387 225.1054 60.0
116.17294910654891 101.21516457479447 225.1084 83.0
116.15047749644145 101.3357734521851 225.1237 55.0
116.17724798375275 100.98514215834439 225.1051 65.0
116.1586263293866 101.10696071572602 225.1082 49.0
116.14094988885336 101.22213283274323 225.1113 86.0
116.16398346610367 100.86584774311632 225.1035 61.0
116.12338649563026 101.33286083303392 225.1149 47.0
116.14452964474913 100.98986862786114 225.1044 68.0
116.12585146748461 101.11390924360603 225.1108 60.0
116.11067152838223 101.22247437760234 225.1066 83.0
116.12807776697446 100.87382837664336 225.105 60.0
116.10646037827246 101.11341598536819 225.1074 61.0
116.12589835166 100.74592195544392 225.101 58.0
116.09202782134525 101.22311187814921 225.1034 84.0
116.10616191441659 100.88105312827975 225.1085 63.0
116.09648058284074 101.01755182631314 225.1106 70.0
116.08104628918227 101.13611621875316 225.112 56.0
116.09480040101334 100.77848333586007 225.1141 45.0
116.06578156584874 101.2480144398287 225.1129 44.0
116.0792813221924 100.90038081631064 225.1092 61.0
116.06295833853073 101.02336959447712 225.1116 70.0
116.07300380093511 100.65897188708186 225.1203 23.0
116.05154357175343 101.13647749554366 225.1061 63.0
116.0621668456588 100.77987672109157 225.1088 55.0
116.04650645959191 100.90732934325933 225.1102 61.0
116.03259519208223 101.02704422641546 225.1087 65.0
116.04031372175086 100.66258732788265 225.1164 49.0
116.01960087718908 101.14122369512916 225.1063 30.0
116.0270367898047 100.78787708468735 225.1092 51.0
116.01378812012263 100.91205581463873 225.1082 61.0
115.99979206861462 101.03510378301144 225.1115 70.0
116.00524018867873 100.66836563684046 225.1152 57.0
115.9935931249056 100.9126538541168 225.1049 72.0
116.00043864338659 100.52149280533195 225.1017 51.0
115.98042924061883 101.03349949698895 225.1053 51.0
115.98182957153767 100.67332887090743 225.1155 57.0
115.97829686838668 100.81220746785402 225.1094 55.0
115.96585210470948 100.93529489729553 225.1076 69.0
115.96864983369596 100.55070136953145 225.1084 55.0
115.95231117028743 100.70481868460774 225.126 45.0
115.94316681288183 100.82020783424377 225.1102 51.0
115.9466710803099 100.40783858671784 225.1015 46.0
115.9347698376514 100.93672774266452 225.1018 63.0
115.93185544293374 100.56310639064759 225.1127 51.0
115.91795675782487 100.7128387792036 225.1268 45.0
115.91113933175802 100.8282871209085 225.1117 64.0
115.90973538078833 100.4257987504825 225.1097 49.0
115.89629525947385 100.71006427332759 225.119 49.0
115.897431750549 100.26872935798019 225.0984 60.0
115.88853262073826 100.83215905725956 225.1111 87.0
115.88471695233602 100.43294458184391 225.111 57.0
115.87403388915118 100.57831177767366 225.1138 59.0
115.86268822918646 100.71921512950212 225.12 49.0
115.85988997633103 100.2800036193803 225.0994 51.0
115.85814121179283 100.83694471977651 225.1085 30.0
115.85036253859289 100.44096467923373 225.1102 77.0
115.84548896295018 100.60204412136227 225.1159 59.0
115.83201402553823 100.46050940081477 225.1104 77.0
115.82371441787109 100.60371372941881 225.1126 59.0
115.8141614610795 100.15543641708791 225.1017 72.0
115.81569742620923 100.73580777272582 225.1112 24.0
115.80380185786635 100.31859980430454 225.1075 51.0
115.79605180164799 100.47071209456772 225.111 67.0
115.78855609986931 100.61282512638718 225.1135 66.0
115.77498361398466 100.17000430542976 225.1051 72.0
115.76870006136596 100.32548914290965 225.1052 51.0
115.76017436233815 100.47758170310408 225.1089 67.0
115.74314757878892 100.01799679826945 225.1051 30.0
115.75597906706389 100.61199645418674 225.1038 24.0
115.73741357796825 100.18238959740847 225.1064 76.0
115.73026959761046 100.34118778817356 225.1107 51.0
115.72579168749508 100.48671282827854 225.1086 72.0
115.7038849464152 100.03589777369052 225.1111 40.0
115.69992832653224 100.19144180323929 225.1052 67.0
115.7017811939586 100.36269807536155 225.1089 54.0
115.67054484831169 100.06506687868387 225.1145 40.0
115.66725082672201 100.22507475316525 225.1132 87.0
115.66429594391957 100.37175028119236 225.1083 57.0
115.63222742965445 100.07632141187787 225.1145 36.0
115.6321490299888 100.23196409177035 225.1101 76.0
115.59534825233277 100.09205952193588 225.1176 43.0
115.59543942299206 100.24103602860123 225.1095 72.0
115.53885189036373 100.11619260441512 225.1107 43.0
115.48564683750737 100.5906672142446 225.1171 45.0
114.14570482110139 96.8500162223354 225.0994 37.0
114.08516064868309 96.88071683980525 225.0994 46.0
113.95704702916555 96.4249767223373 225.0983 57.0
114.05090359260794 96.91542136855423 225.1059 52.0
114.01675958186388 96.94568178243935 225.1046 52.0
113.74325772176962 96.01152718439698 225.1133 24.0
113.95874017197639 96.9686643909663 225.1025 24.0
113.82750829937868 96.5439738901332 225.1107 45.0
113.65741248941049 96.06048393622041 225.1141 44.0
113.76616022072267 96.57576580997556 225.1105 39.0
113.61806505615823 96.08171801175922 225.1144 47.0
113.57049640954938 96.09051374066621 225.109 50.0
113.54841097712051 96.10440467298031 225.1096 53.0
111.17541879229248 99.44265601132065 225.2189 45.0
111.36229279881809 99.72423460613936 225.214 46.0
111.3457216725219 99.73493056930602 225.2167 56.0
111.09781049750745 99.47292260453105 225.2206 41.0
111.53132698254194 100.00535942148417 225.2214 40.0
111.29316006600857 99.75694028194994 225.2178 56.0
111.26825468440074 99.75964201707393 225.2147 60.0
111.67771357914899 100.26144971698523 225.2167 33.0
111.46210946945939 100.04139818251133 225.2186 69.0
111.42224077216815 100.0526132825762 225.2166 69.0
111.79206008662004 100.49560181982815 225.215 53.0
111.77790067507885 100.50302388519049 225.216 53.0
111.57347905961797 100.30104475095868 225.2157 31.0
111.74800230399705 100.51893958356231 225.2175 57.0
111.52685565734282 100.30319405347109 225.2068 56.0
111.90083577530459 100.73517095763236 225.2268 48.0
111.70242149499245 100.54112686030567 225.2194 49.0
111.68438386544585 100.54845027811825 225.2191 57.0
112.01755311829038 100.93714268878102 225.219 37.0
111.84701809613034 100.77604842465371 225.2274 56.0
111.82978437154088 100.78228054288775 225.2268 56.0
111.81105588166974 100.78625114262104 225.224 56.0
112.10978899057955 101.12515072245151 225.2166 38.0
111.93988831527531 100.96963132824749 225.2173 48.0
112.07997540407814 101.13773333467543 225.2154 35.0
111.91685769450851 100.99016871117055 225.2228 41.0
112.05545001802966 101.15600919723511 225.2196 44.0
112.03597414633259 101.15884904097766 225.2154 44.0
111.8668208529707 101.00446040648967 225.2179 41.0
111.85113841609564 101.01073198206723 225.2171 33.0
112.15228322451003 101.34635766968131 225.2175 67.0
111.98905247880612 101.20323716010898 225.2189 44.0
112.26630928961094 101.5015675490722 225.218 34.0
112.11063715955243 101.36642153561115 225.2171 72.0
112.24034566117916 101.51535983756185 225.2187 36.0
112.36786853079684 101.65868380945176 225.223 30.0
112.21515767625533 101.52917185612023 225.219 39.0
112.34650224179495 101.67481653392315 225.2268 28.0
112.44362110854127 101.79290868062526 225.2114 50.0
112.04299920529593 101.4013887187466 225.2178 48.0
112.18037935986649 101.55385740473866 225.2229 42.0
112.30870613455772 101.69609007611871 225.2268 33.0
112.14832362753805 101.56304774060845 225.2179 36.0
112.29093545326032 101.72343173902482 225.2273 28.0
112.53260047850199 101.95637543871999 225.2193 40.0
112.39572597213555 101.8450542697683 225.2171 57.0
112.50669337331783 101.96794566884637 225.2168 33.0
112.37283665756695 101.86003650631756 225.2185 57.0
112.60857913678046 102.08171208202839 225.2139 65.0
112.22568095417228 101.75623605307192 225.2258 26.0
112.47967149247415 101.99282851442695 225.223 43.0
112.33739574276842 101.88025820814073 225.2181 60.0
112.57471777021419 102.10086221341044 225.2124 82.0
112.45069007459097 102.00320879742503 225.2183 46.0
112.31752421951387 101.89865245111287 225.2238 53.0
112.55182845622767 102.11584444902837 225.2139 67.0
112.65537854726426 102.22520620934665 225.2138 70.0
112.41444525588304 102.02452179882675 225.218 46.0
112.52331181103364 102.13846577797085 225.2176 76.0
112.63272791716736 102.26131772063673 225.2178 70.0
112.73098980565555 102.36498622782528 225.2173 49.0
112.39099072210956 102.06172460969537 225.2227 43.0
112.49681122519542 102.17336761299521 225.2183 72.0
112.60271650762297 102.28167753200978 225.2188 75.0
112.4724271466257 102.18608833104372 225.2171 82.0
112.57600549899507 102.29433906171471 225.2151 70.0
112.68274294328876 102.40044665243477 225.22 53.0
112.5600404542638 102.31172092352062 225.2214 87.0
112.66376010794193 102.41441650874913 225.2221 53.0
112.76291068107821 102.51366063021123 225.2246 55.0
112.85289483598899 102.60711285099387 225.2235 49.0
112.52155348961242 102.32964164577425 225.2155 64.0
112.63061786442995 102.43580842670053 225.2213 53.0
112.84902921319008 102.637031708844 225.2319 45.0
112.92453049076721 102.72010980267078 225.218 75.0
112.61597801814787 102.46211798023432 225.2209 53.0
112.71900680824183 102.56146075204015 225.225 59.0
112.81597175321076 102.65509054157883 225.2271 56.0
112.89607036905363 102.74050907138735 225.2169 82.0
112.79928758740425 102.67023061588407 225.2305 56.0
112.87556450860575 102.75332843884826 225.216 82.0
112.96652212913614 102.83902318961918 225.219 56.0
112.66690999129787 102.59571149758995 225.2234 59.0
112.76697751018219 102.68942020647228 225.2274 51.0
112.85095434263349 102.77493738755584 225.2193 92.0
112.75184463115875 102.70459974184632 225.2306 51.0
112.82817807467654 102.78547550644726 225.2139 92.0
112.92655299557373 102.88469990063459 225.2165 60.0
113.01299805892631 102.96472112927586 225.217 65.0
112.7315491931513 102.73965941369534 225.2333 42.0
112.91371878562495 102.90104965399951 225.2225 69.0
112.99556651106104 102.97873044479638 225.2172 63.0
113.07284515793435 103.05295977089554 225.2088 63.0
112.79274975752924 102.83571471367031 225.2181 92.0
112.88221261336002 102.9191479459405 225.2174 70.0
112.96943332010414 102.99918890278786 225.2174 63.0
112.86400542256888 102.93313753139228 225.218 70.0
112.95355305913836 103.01323767844588 225.219 63.0
113.0316073494032 103.08748673461378 225.2103 61.0
113.1204641215736 103.16423406545073 225.2187 39.0
112.83554530190304 102.95353680104017 225.2161 50.0
112.93126982403919 103.03490581549704 225.2222 65.0
113.01826443942264 103.12383500300348 225.2164 63.0
113.10795337683521 103.1983800092712 225.2244 38.0
113.18922328064218 103.26826387178153 225.2249 24.0
112.90718095260672 103.06653375271708 225.2171 77.0
112.99215951014776 103.14318243321031 225.2151 63.0
113.17104435118381 103.2811424266547 225.2217 38.0
112.9762792494148 103.15723120886832 225.2153 63.0
113.06366951821838 103.23060599435121 225.218 45.0
106.94324787345249 98.85695412196219 225.3307 61.0
113.14493942190893 103.30048985593021 225.2183 30.0
112.95244472799823 103.178859885782 225.2173 49.0
113.0336863725679 103.24985477514565 225.2124 43.0
106.81694359367248 98.87931165937334 225.334 76.0
113.12035751820076 103.32098777405918 225.2167 41.0
113.02577296597883 103.28634115401655 225.223 39.0
113.00989270571154 103.30038992967457 225.2234 29.0
107.26511292858049 99.41545610688627 225.3312 43.0
107.13650998740923 99.43664341978729 225.3314 89.0
107.5166234455537 99.90212847758085 225.322 47.0
107.40344860684127 99.92704345565289 225.3235 71.0
105.44673633831553 99.07459116820246 225.3383 93.0
107.95627068472095 100.80382117722183 225.3322 44.0
107.88362714776304 100.8219848703593 225.3315 42.0
105.82254182489123 99.6789349867031 225.3423 95.0
107.79620248218998 100.8720132689923 225.3377 25.0
105.62950394698419 99.70070687774569 225.3343 47.0
108.17351751867682 101.17288855090737 225.3217 46.0
108.07488210534211 101.20595557428896 225.3233 70.0
108.00603200972546 101.22755099926144 225.3239 67.0
106.06471345236059 100.22762761730701 225.3359 39.0
108.3930347354617 101.54423717688769 225.3296 33.0
108.28276467416435 101.57700825762004 225.3272 75.0
108.18404448591173 101.61340836621821 225.3283 79.0
108.54318356350996 101.8660161998123 225.3193 32.0
108.47811126476154 101.92217188701034 225.3282 34.0
108.3731859329855 101.95841415785253 225.3262 64.0
108.69681494729593 102.20344827696681 225.3243 40.0
108.6402055923827 102.23202553763986 225.3265 66.0
108.58802401646972 102.2696094037965 225.3266 83.0
106.779363738955 101.66884223558009 225.3385 59.0
108.8516176014673 102.52534568402916 225.332 38.0
106.62703938246705 101.70721414498985 225.3348 22.0
108.76594205957372 102.56763632874936 225.3333 60.0
108.70778142102063 102.59617413021624 225.3341 67.0
107.09811947843991 102.0749557139352 225.3532 38.0
106.96253580157645 102.09596546646208 225.3401 75.0
108.93827666644938 102.8410627907142 225.3257 53.0
108.85797411063686 102.8857135977596 225.3276 53.0
108.79900957085192 102.91534269694239 225.3275 37.0
109.12372806074563 103.0870292102918 225.3171 52.0
107.17312533396762 102.48265143018216 225.3365 64.0
109.05419973144308 103.13528931420296 225.3226 44.0
108.96697290975135 103.17754049506038 225.32 50.0
109.2608917336911 103.33954961039126 225.3171 48.0
109.21973873057868 103.37074351031333 225.3207 50.0
107.3596416353248 102.86983682587743 225.3445 38.0
109.1553290419979 103.43136303499341 225.3241 54.0
109.36925616348162 103.62580164149404 225.3239 34.0
109.3265236148145 103.65806711278856 225.3271 34.0
109.28037762874737 103.70247498247772 225.3255 42.0
107.48103213647846 103.25425393972546 225.3468 63.0
109.20926975796465 103.75180665310472 225.3277 33.0
107.81779052712955 103.50184546876699 225.3489 21.0
109.4604151295498 103.91717477142811 225.3312 40.0
107.72679854393937 103.53955390769988 225.3434 46.0
109.41142091550864 103.95150446332991 225.3318 40.0
107.64361951453611 103.57523758150637 225.3396 51.0
109.36834924330469 103.99710227828473 225.3304 43.0
103.08841848932207 102.66002656053752 225.2584 25.0
109.66019847465213 104.08790692407638 225.3191 26.0
107.9789678954985 103.8172345161438 225.344 24.0
108.03192207252141 103.84081641584635 225.3743 57.0
109.77623756416142 104.31654330343008 225.3213 23.0
109.66154933429789 104.43147130031139 225.325 50.0
108.04031033266801 104.1823362968862 225.3415 50.0
107.99705649376847 104.20458278805017 225.3393 50.0
107.96003606065642 104.22587608639151 225.3386 60.0
109.90726820915006 104.53555528726429 225.321 22.0
109.84858323994558 104.61522013135254 225.3273 51.0
109.78356747690123 104.66915374714881 225.3266 61.0
108.22061178949662 104.47820033784956 225.3451 62.0
109.72478512034286 104.72213417105377 225.3279 41.0
108.1017092813272 104.54521602019668 225.3388 82.0
110.00895005604252 104.7793909450993 225.324 24.0
109.94628948299214 104.83227271772921 225.3214 54.0
109.92648710450158 104.87846241891384 225.3265 44.0
109.8758003062103 104.91830779053271 225.3226 51.0
109.82632566790562 104.97152496874332 225.327 26.0
110.03984750434756 105.09035445470363 225.3251 52.0
108.5774933815701 105.03314611222595 225.3514 21.0
108.5388368840795 105.05773303285241 225.3483 26.0
110.19405002472922 105.28327391296625 225.3306 34.0
110.13593027053867 105.34071817807853 225.3278 42.0
110.12146000494249 105.36036156397313 225.33 42.0
110.08247698203195 105.42829832714051 225.3343 32.0
110.24806284043007 105.570366948843 225.3285 60.0
110.22896697744727 105.58878092840314 225.3266 63.0
108.79474352102261 105.61566914431751 225.3377 51.0
110.18987091211602 105.6611618064344 225.3309 39.0
108.69771294551902 105.7076996024698 225.3297 58.0
110.43852578778751 105.71084486693144 225.3325 31.0
110.42330813966691 105.72935749311 225.332 31.0
110.4033518518554 105.7510848287493 225.3305 33.0
110.39123677590396 105.76967637240887 225.3328 34.0
110.32167715381365 105.88019353337586 225.335 31.0
110.54119671578519 105.91579452622682 225.3167 74.0
108.82590494304895 106.00779693573713 225.3303 44.0
110.5185461101355 105.9519060458988 225.3205 61.0
110.4461665226845 106.05123399756849 225.3217 76.0
110.43166799703613 106.07198840938509 225.323 76.0
110.41642208909616 106.09161206614226 225.322 75.0
109.0311020843219 106.20979571249336 225.3302 49.0
110.68861623760313 106.10075922962278 225.3228 25.0
110.62912736774888 106.181515365839 225.3205 60.0
110.61698403104674 106.20121794007719 225.3219 60.0
110.57664754625876 106.26133803930134 225.3226 68.0
110.54842613765504 106.3028665939346 225.3231 64.0
110.51389914762694 106.3786989338696 225.3244 20.0
110.763712682412 106.38282982911915 225.3213 37.0
110.75120195606723 106.41697577573359 225.3285 41.0
110.73038524389267 106.44201646652073 225.3251 41.0
110.71591497876216 106.46165985055268 225.3237 41.0
110.70681769226212 106.4836633997038 225.327 44.0
109.40561588923447 106.68180896993726 225.3418 27.0
110.69780518813059 106.5023338617757 225.3288 44.0
109.37537842756137 106.7110570250079 225.3379 28.0
110.68175537674688 106.52304881531745 225.3267 50.0
110.91609691129997 106.55569160077721 225.3242 23.0
110.89924319542479 106.57749785389751 225.3212 26.0
110.88939852640033 106.5983706433326 225.3228 37.0
110.8407686582068 106.67940299212933 225.3223 41.0
109.46416345390026 107.09575657453388 225.3414 33.0
111.02817290578969 106.78756244666874 225.3207 22.0
109.43065385939553 107.13159188628197 225.337 35.0
111.01993604376912 106.80625263787806 225.3221 31.0
109.41210756229702 107.15891382656991 225.3378 33.0
111.00931573205162 106.82710569817573 225.3218 28.0
110.97079748124816 106.90728350356221 225.3255 26.0
110.96247583732475 106.92930678278208 225.3278 28.0
109.64850296324585 107.29388959053904 225.3364 46.0
109.63501877814997 107.33579301089048 225.336 65.0
109.61092993919738 107.36742095928639 225.3343 57.0
109.58528981474228 107.39900944940746 225.3314 52.0
109.56510745058767 107.42962501663715 225.3313 70.0
111.12490254105069 107.07351856771857 225.3199 40.0
111.0795291493414 107.17909219674766 225.3238 40.0
109.79482987313531 107.61334794573486 225.338 40.0
111.06608581612818 107.24990209378302 225.3291 49.0
109.72560940706171 107.71053276397288 225.3311 44.0
111.02851277438458 107.3234334550798 225.3266 72.0
111.017088559689 107.34537781402469 225.3255 38.0
111.25826000247616 107.29258977528661 225.3143 30.0
106.36983667267486 109.13381642010063 225.2409 24.0
111.20598754729144 107.45579879265279 225.3178 45.0
111.20079673500732 107.47678995970637 225.3205 55.0
109.94473976816516 107.91399773396552 225.3361 42.0
111.19330725516193 107.4966109097004 225.3214 68.0
111.18099435395561 107.52297965530306 225.32 64.0
111.16357542329933 107.5670064818114 225.3204 68.0
109.85302261740435 108.07175643648952 225.3326 36.0
111.40391469467431 107.51642077602446 225.3165 30.0
111.40504206728656 107.53312566783279 225.3223 30.0
111.38959833339322 107.56052652001381 225.3181 55.0
111.39306523348205 107.60730811022222 225.3254 48.0
111.36604031873867 107.69333700276911 225.3285 50.0
110.10358997131698 108.22932765539736 225.3381 33.0
110.06701867422089 108.29399052169174 225.3355 37.0
111.32038431800902 107.81002091616392 225.3257 59.0
110.02720350399613 108.36412961408496 225.3312 56.0
111.31671653012745 107.8321625739336 225.3291 56.0
110.01078631111886 108.39928794372827 225.3318 53.0
111.53155696438625 107.80761021282524 225.3033 29.0
111.53745123627596 107.81998936645687 225.3117 27.0
111.53389649116434 107.83768690750003 225.3136 39.0
106.86104309989605 110.02236781362444 225.2573 22.0
111.51550408976618 107.88947120588273 225.3112 45.0
111.50830981694162 107.92819937504828 225.3157 45.0
111.22372454416472 108.10106359515339 225.3188 21.0
110.27504826395307 108.53719605505466 225.3397 28.0
111.49196173506789 107.99115315079689 225.3182 53.0
110.24703729606699 108.60096491687 225.3392 26.0
111.4794353452744 108.05642763152719 225.3152 50.0
111.44377791672014 108.17670111823827 225.3152 50.0
107.08216180163436 110.51382589060813 225.2559 37.0
107.03395591326989 110.57819283567369 225.2525 23.0
110.42148204438854 108.9745023958385 225.3395 32.0
107.32209370227065 110.99798027519137 225.253 38.0
110.60801357962191 109.33055936731398 225.3361 46.0
104.36839409999084 113.45763510093093 225.1727 24.0
107.63039814960212 111.41828068997711 225.2481 23.0
110.54954861768056 109.52362805791199 225.3298 34.0
110.86528858030215 109.59058202337474 225.3441 21.0
110.83397415676154 109.72319520730525 225.3466 23.0
107.89971656014677 111.9676639419049 225.2512 36.0
110.7945515785832 109.83892593625933 225.3395 27.0
110.78109565074556 109.87971832603216 225.3372 48.0
110.77005143242422 109.91723681986332 225.3363 48.0
108.18278300843667 112.55630807392299 225.2535 40.0
111.03814147273079 110.20977526437491 225.3341 22.0
111.02784463507123 110.24842451512814 225.3319 22.0
111.01193307503127 110.32473036646843 225.3309 24.0
110.9999719094485 110.36778427381068 225.3283 24.0
108.53674672776833 113.07338023837656 225.2513 24.0
108.53719585633371 113.11674982029945 225.2607 24.0
108.51048186433036 113.19055740721524 225.2588 25.0
108.46857850812376 113.28176659625024 225.2517 31.0
108.45223046769388 113.3447203785181 225.2542 25.0
108.84792182757519 113.8995416322723 225.252 31.0
108.82660906750243 113.97459835279733 225.2507 37.0
106.33754335087724 117.39105627965182 225.1699 65.0
127.91102718166076 108.27652349602431 224.8709 54.0
127.85514012305066 108.24619632400572 224.8741 50.0
127.79953570198268 108.2047588666901 224.8755 50.0
127.56605259794742 107.40614304505289 224.8865 27.0
127.48239944886882 107.33842185046524 224.8807 56.0
127.18579011724796 107.12964998651296 224.8769 33.0
132.76173395954538 106.69783822540194 224.0036 23.0
132.02394427428953 106.38000865466893 224.0277 23.0
127.18348065076862 105.72545378468931 225.0 23.0
126.66334439162165 105.79115604888648 224.8832 34.0
126.5261817824794 105.26403355319053 224.8903 31.0
126.29597604623996 105.16034353058785 224.8813 20.0
125.95440517750103 104.18665723782033 224.8874 47.0
125.89430069434457 104.16956377122551 224.8895 40.0
125.74384164158255 104.13460731040686 224.8901 40.0
125.56830176408403 103.68210741318762 224.887 42.0
125.52282144408673 103.66983296629041 224.8867 30.0
125.5384665542515 103.2989072073251 224.8932 40.0
125.38019451848231 103.26597549859434 224.8939 40.0
125.23521237901878 102.86316987220198 224.8946 28.0
125.10446780640632 102.84650290664285 224.889 20.0
125.01523144729435 102.4795795744285 224.9012 28.0
125.26898678252473 101.81009217910469 224.9594 20.0
125.24759538925719 101.76618984434754 224.928 20.0
125.23256299481727 101.74690772499889 224.9147 20.0
124.74516369309276 101.71560915373266 224.8961 52.0
124.59405452141073 101.70620638504624 224.8931 49.0
124.62966846267227 101.34357084427029 224.8986 31.0
124.41849556902889 101.34598110802472 224.8989 43.0
124.3369307880057 100.98258818779141 224.9012 42.0
124.2422931061592 100.61441572010517 224.9029 30.0
124.015937296208 100.23733378387988 224.8923 43.0
123.96850997779984 100.24057428911328 224.89 49.0
123.85936113249045 99.86313870362937 224.8888 32.0
123.80481170245912 99.87175677064806 224.8881 27.0
123.74943010264542 99.88257716689259 224.8889 32.0
123.93482203315943 99.09350539185107 224.9536 20.0
123.5764240778517 99.51352288015187 224.8893 32.0
123.53281844733283 99.51908410154283 224.8867 37.0
123.49507881188765 99.53813552018255 224.8848 34.0
123.49803403625265 99.11685830168426 224.8892 54.0
123.3902320858324 99.14413316827267 224.8896 45.0
123.34027998754755 99.15509168617427 224.8885 54.0
123.31038157758303 99.17100733052939 224.8844 24.0
123.14600202883594 98.34079719334841 224.8915 43.0
123.09358167846221 98.35725166462362 224.891 46.0
123.03165576094761 98.38124656118453 224.8933 37.0
122.98472144443076 98.39561709109694 224.8922 40.0
122.94100275542587 98.40562243293971 224.8894 43.0
122.86808614037 97.97685641981661 224.8989 37.0
122.81477709277533 97.99773527495563 224.899 31.0
122.7296949045267 98.01669412478805 224.8911 27.0
122.533645757474 97.08895633742213 224.8941 34.0
122.39026148733683 97.14200801029801 224.887 34.0
121.16642424790189 94.60388464014977 224.8837 38.0
120.81855562701821 94.03026768751442 224.8864 42.0
120.46002889261581 93.38745127804577 224.8893 36.0
117.03671833104454 102.65239146724343 225.1007 51.0
117.00850620411802 102.51048186421394 225.1055 36.0
116.9991765684681 102.66366572212428 225.102 54.0
116.97510958858766 102.54187301918864 225.1114 57.0
116.9664990734309 102.6972986664623 225.1112 54.0
116.93742651632056 102.55870241764933 225.1165 57.0
116.93050859798677 102.70861238054931 225.113 51.0
116.90567531110719 102.40336181782186 225.1138 40.0
116.89994127699174 102.56775461602956 225.1153 54.0
116.8953785514459 102.71661274135113 225.111 51.0
116.86644095159136 102.42015175614506 225.1185 43.0
116.84608572605066 102.24397783633322 225.1092 26.0
116.86237125238404 102.5801399005577 225.1168 57.0
116.85869721835479 102.72457364015281 225.1091 54.0
116.82754573365673 102.42360935080796 225.1118 46.0
116.81360606220551 102.26983358059078 225.1101 26.0
116.8323033057386 102.60272174794227 225.1161 60.0
116.80897112877574 102.4520423002541 225.1184 43.0
116.78712113830261 102.2736068610102 225.1061 57.0
116.80728488462046 102.60986757557839 225.1164 57.0
116.74686611117795 102.11693819891661 225.1137 26.0
116.77062546031084 102.4644078547135 225.1187 43.0
116.74619418254588 102.29591248370707 225.1132 49.0
116.76982790778857 102.61780874617398 225.1132 54.0
116.74480313353706 102.47264498099685 225.1188 43.0
116.69180475652684 101.93209920916706 225.1053 31.0
116.69289452489465 102.13335326034576 225.1132 30.0
116.72159035480581 102.46983101032674 225.1106 46.0
116.69549474189989 102.3057402940467 225.1086 57.0
116.65107563138008 101.94662762992084 225.1059 34.0
116.65294104430359 102.14790141116828 225.1142 30.0
116.68321642500814 102.4833075935021 225.1125 36.0
116.66204160335474 102.33935350831598 225.115 53.0
116.61158366536256 101.75996119249612 225.0969 54.0
116.632899937802 102.1729618133977 225.1166 30.0
116.63550015643705 102.34534884709865 225.1128 57.0
116.5825174532365 101.77367454208434 225.0996 51.0
116.58872585068457 101.98728802334517 225.1087 34.0
116.59300298104063 102.18528790865093 225.1156 33.0
116.56046354491264 101.99991007428616 225.1107 39.0
116.56637674837839 102.19461633358151 225.1157 33.0
116.50329809403047 101.59266802761704 225.1037 22.0
116.53375252627302 102.01257158536464 225.113 36.0
116.52062311093323 102.01001411024481 225.1085 36.0
116.48426197713707 101.82231556624174 225.1085 58.0
116.4466039093677 101.62457830365747 225.1104 26.0
116.47989398660138 102.02454253379256 225.1086 36.0
116.40482894983143 101.40561311040074 225.1081 23.0
116.44718497549184 101.84583087172359 225.1045 51.0
116.41004819469526 101.6581125985831 225.1129 26.0
116.36597456538584 101.43797718454152 225.1089 41.0
116.35189993516542 101.4420661535114 225.1077 48.0
116.33538532722741 101.45054004807025 225.1093 50.0
116.37902571144514 101.87077902071178 225.1048 35.0
116.28978866781108 101.22925414610654 225.1147 56.0
116.33795418788213 101.68518415093422 225.1134 26.0
116.32390781980939 101.68816209118813 225.1112 26.0
116.22346314252354 100.96852978877723 225.103 37.0
116.27883245062549 101.47689518053085 225.112 50.0
116.22979407501407 101.2688627038151 225.1236 52.0
116.24672018736601 101.48830755148083 225.1114 48.0
116.16039423528127 101.00694839842618 225.1099 49.0
116.22518431697972 101.51110643707216 225.1104 48.0
116.10745247465093 100.73878225497901 225.1007 30.0
116.1747359612491 101.29747935663909 225.1185 56.0
116.1199320392916 101.04149506986141 225.1109 49.0
116.14627582184039 101.31787860952318 225.1235 48.0
116.08842584793456 101.05959334596992 225.1132 53.0
116.11568658344913 101.33044147212058 225.1232 48.0
115.97712849255186 100.49199441727251 225.1076 38.0
116.01132608612534 100.79525968059897 225.1083 31.0
116.04154809331521 101.07174186967313 225.1096 61.0
116.02580912865233 101.08023549616337 225.1103 61.0
115.96244485676289 100.82514520548284 225.1128 33.0
115.99378164880909 101.08831478189677 225.107 38.0
115.83264818228781 100.19148259516805 225.097 44.0
115.93110823445022 100.83657731115818 225.1114 33.0
115.80603452341165 100.23082853108644 225.102 49.0
115.85021502920426 100.56881190929562 225.1093 69.0
115.77059358754195 100.25105021521449 225.1034 60.0
115.87139625672717 100.8650755835697 225.1048 21.0
115.73747958277818 100.27133109048009 225.106 60.0
115.78355051821563 100.59602158144116 225.1081 75.0
115.6856088222703 100.29669358115643 225.1065 63.0
115.59782268700656 99.9642714811489 225.1073 28.0
115.56373520684429 99.99230982922018 225.1122 28.0
115.61564390361309 100.33160153590143 225.1076 39.0
115.53366725333035 100.01489168405533 225.1088 28.0
111.56056618248112 100.19843550864607 225.2237 50.0
111.53399647178594 100.20554189849645 225.2242 50.0
111.83506609522738 100.63566420320421 225.2177 42.0
111.4833252853714 100.21425872389227 225.2225 53.0
112.02823643619195 101.06637716293335 225.2197 28.0
111.6980002009077 100.68442984297872 225.2183 64.0
111.98900208319537 101.0831671319902 225.2218 37.0
112.41839226649608 101.77781422063708 225.2276 41.0
112.54710547754075 102.08793062157929 225.2197 46.0
112.31445297331084 101.83631646074355 225.2311 63.0
112.29408841626719 101.84358068462461 225.2314 56.0
112.71234610292595 102.36562373954803 225.2241 40.0
112.48254184098914 102.12408774904907 225.2258 56.0
112.6478955122875 102.39733675029129 225.2281 43.0
112.39745974726975 102.14304673951119 225.2202 42.0
112.8140404780861 102.63947694841772 225.2275 30.0
112.96647820039652 102.87126275431365 225.224 33.0
112.56520946952514 102.4441503752023 225.228 49.0
112.93887850572355 102.88834866601974 225.2273 33.0
113.09633747115731 103.1058094818145 225.2381 31.0
112.89706288115121 102.91507869865745 225.2322 49.0
112.67663548572455 102.7015749104321 225.2226 31.0
113.04773888539057 103.12458474189043 225.2366 31.0
112.8446143391775 102.93264428246766 225.2295 57.0
113.0051758796908 103.15018401574343 225.2404 35.0
112.96327547344845 103.18024713359773 225.2381 56.0
108.1957003189018 101.18568201828748 225.3268 45.0
108.07393690058962 101.21260201744735 225.3322 87.0
108.38120579381939 101.76517406757921 225.3271 89.0
108.25642459257506 101.78868206217885 225.3292 100.0
108.66740963282064 102.23049400839955 225.3162 52.0
108.5571961022215 102.26104302611202 225.3204 96.0
106.62051016720943 101.41465845145285 225.3416 69.0
109.1190146439476 103.15027893241495 225.3272 39.0
109.0501363046933 103.17298537306488 225.3293 57.0
107.00453660113271 102.03144068550318 225.3451 95.0
108.94837008358445 103.20708449557424 225.3332 33.0
106.79100857721642 102.0349033921957 225.3333 47.0
109.31331549631432 103.53655065502971 225.3212 49.0
109.1496517334599 103.59353377763182 225.325 59.0
107.16911542206071 102.57927147578448 225.3307 60.0
109.51837793644518 103.8964141793549 225.3268 43.0
109.42635595984757 103.94410212244838 225.3275 69.0
109.33300878177397 103.98286237567663 225.3308 69.0
109.67075313755777 104.25271404348314 225.3266 36.0
109.57818160555325 104.29149402398616 225.3279 69.0
109.51674884289969 104.32661907095462 225.3262 64.0
109.81152193364687 104.60760693997145 225.336 31.0
109.70817618386354 104.64277761802077 225.3314 66.0
107.89658369717654 104.03526501171291 225.3362 70.0
110.01664387318306 104.90410238225013 225.3406 34.0
109.92950184969231 104.94302046392113 225.3398 63.0
109.86981820117217 104.97040776629001 225.34 60.0
108.18476567172911 104.42281292006373 225.342 61.0
110.14988533454016 105.18876372091472 225.3293 53.0
108.03899825608823 104.47802778705955 225.3369 76.0
110.07504056044854 105.23244158830494 225.3331 56.0
109.99014068837278 105.27475194446743 225.3328 79.0
108.38607558328658 104.80815115012228 225.3377 47.0
98.47531586629339 101.64106548763812 225.1547 45.0
108.29217886459082 104.8380034584552 225.3346 60.0
110.10686755389906 105.56788719072938 225.3299 50.0
110.41158871294465 105.73239463474602 225.3313 56.0
108.52560098213144 105.21192928310484 225.3482 38.0
110.31227510096505 105.79212631471455 225.3319 69.0
110.27150210179389 105.83889434114099 225.3351 71.0
110.55415350804105 105.98616420291364 225.3307 37.0
108.81717106932774 105.5272998092696 225.355 30.0
110.51144922885578 106.01731863617897 225.3334 39.0
108.67306799977086 105.57811000477523 225.3459 70.0
110.43726706155576 106.06546034384519 225.3336 45.0
110.67750938562676 106.26279186550528 225.3423 21.0
108.94251180090941 105.87846501078457 225.3488 36.0
108.9002031753771 105.89406505040824 225.3458 46.0
110.60329895908944 106.31204460188746 225.3415 28.0
110.7910518986173 106.49803525116295 225.3319 26.0
109.1005299501121 106.19599723163992 225.3427 36.0
110.74324159231037 106.54684776626527 225.3397 61.0
110.69036917632911 106.58107879851013 225.3372 66.0
110.64525318949018 106.61550712771714 225.3376 52.0
110.93308276066091 106.71176833380014 225.3359 27.0
110.82036974630319 106.8100703349337 225.3302 50.0
110.96612490806729 106.99943970423192 225.3254 55.0
109.37913751683664 106.83789187297225 225.3433 60.0
110.90815906692296 107.08134632464498 225.3335 44.0
109.26804798771627 106.90288276970387 225.3383 80.0
111.17437105684076 107.14259348623455 225.3213 27.0
111.14169361651875 107.17622645944357 225.324 51.0
111.10039932338987 107.21297549270093 225.3234 51.0
109.5733312657103 107.10631563793868 225.3524 21.0
111.03263273416087 107.28351533785462 225.3284 57.0
111.2967847334221 107.36472156457603 225.3228 25.0
111.26565857906826 107.39839399699122 225.3249 56.0
110.86892207351048 107.43388401996344 225.3167 20.0
109.70778485096525 107.40434877481312 225.3513 28.0
109.63983610889409 107.45153729990125 225.3488 28.0
111.12765716947615 107.54496963787824 225.3315 49.0
111.4104685044149 107.59440981782973 225.3279 34.0
111.37150114052929 107.63121803849936 225.3255 39.0
111.35473220841959 107.64969120360911 225.3262 39.0
111.24510611314327 107.77920065354556 225.3336 32.0
109.72017686255276 107.77154069952667 225.3341 50.0
111.45563829643652 107.8935071574524 225.33 46.0
109.95778134302236 107.98103432264179 225.3373 55.0
111.3575777222868 107.99551710113883 225.3244 60.0
111.64054600242525 108.00827361363918 225.3277 20.0
109.87051066546701 108.05552505515516 225.3348 64.0
109.84116189251654 108.08034872356802 225.3345 44.0
111.58941964036785 108.09591294080019 225.3302 33.0
111.55077574646566 108.15051735006273 225.3345 38.0
111.53237074706703 108.17228414025158 225.334 37.0
110.1464198816102 108.22374661080539 225.3423 23.0
111.51557355478872 108.1918683340773 225.3334 38.0
110.11080944584683 108.25063449796289 225.338 44.0
111.7358121498255 108.22971115913242 225.3179 43.0
110.05670923460275 108.30262226704508 225.3374 47.0
111.62009089335334 108.41576469037682 225.324 81.0
111.60717191454023 108.43544753268361 225.3256 81.0
110.21054122736678 108.57113114651293 225.3356 52.0
111.84570245654322 108.45596768613905 225.3192 37.0
111.80069645284675 108.54709793813527 225.3213 60.0
111.74192670965567 108.63009584695101 225.3204 68.0
111.71841568034142 108.66952071897686 225.3235 73.0
110.38651510933414 108.82352702971548 225.3419 43.0
